131.133233 131.894559 131.845859 128.523420 127.041233 127.587446 128.212519 127.925217 127.216925 127.265623 127.497297 127.473038 127.121433 125.213236 122.309946 124.449298 125.583714 125.053197 124.862430 124.886416 124.680557 124.075005 123.656572 124.769431 124.607446 123.011036 123.491028 122.861560 122.428677 123.524673 123.320622 122.648427 122.683290 122.446396 121.642696 120.693976 120.809977 122.045146 122.589829 124.955891 122.953454 122.052513 121.851464 120.975594 119.917964 119.158576 117.790913 116.586976 115.240144 113.916319 112.800697 111.987568 110.702473 108.969251 108.285696 110.585440 112.340515 107.535394 103.625966 99.758347 98.866838 100.110967 97.679654 100.586770 102.605133 98.026910 95.829995 96.243815 100.418158 100.792296 100.417475 96.313191 98.651377 99.415041 97.970339 98.066776 95.640073 95.723433 95.831642 93.496306 93.330469 92.992291 92.278855 92.284141 92.029492 91.478775 89.600393 90.075381 89.752951 89.739483 90.137549 89.961852 85.877608 85.053019 85.120122 81.333889 80.265212 79.385308 78.420811 77.404990 76.271027 75.132004 74.562891 74.217325 73.568225 72.491875 72.201824 72.029958 70.937916 69.675959 69.123787 64.475646 64.293812 61.093504 56.315006 56.366846 55.634477 53.477515 51.557729 51.096690 46.361188 42.169876 39.813855 36.894477 35.033778 33.137493 32.224621 29.996060 28.055375 28.152392 27.348995 26.474572 24.494937 24.422532 23.517884 22.124311 26.129868 34.494580 39.091660 41.618759 41.144040 40.329286 39.922232 39.487771 39.323037 38.950893 37.864521 37.881413 37.414593 36.965365 36.282158 34.750010 33.546841 32.336833 30.848034 29.332967 27.696899 25.826700 23.594821 21.689636 19.865375 18.314897 16.646645 14.828993 12.897476 10.586876 8.339029 6.533413 5.195928 3.019302 2.055794 -2.065400 -99.000000 -99.000000 -99.000000 -99.000000 -99.000000 -99.000000 -99.000000 -99.000000 -99.000000 -99.000000 -99.000000 -99.000000 -99.000000 -99.000000 -99.000000 -99.000000 -99.000000 -99.000000 -99.000000 -99.000000 -99.000000 -99.000000 -99.000000 -99.000000 -99.000000 -99.000000 -99.000000 -99.000000 -99.000000 -99.000000 -99.000000 -99.000000 -99.000000 -99.000000 -99.000000 -99.000000 -99.000000 -99.000000 -99.000000 -99.000000 -99.000000 -99.000000 -99.000000 -99.000000 -99.000000 -99.000000 -99.000000 -99.000000 -99.000000 -99.000000 -99.000000 -99.000000 -99.000000 -99.000000
135.579771 134.874928 133.417287 129.008966 127.409483 126.918851 126.244979 126.529520 127.321576 127.465872 128.051207 127.974529 127.367772 125.652456 123.902339 126.723797 127.179708 127.012362 126.153786 125.212697 124.575830 124.367936 124.306628 124.897045 124.576014 122.765129 121.960579 120.393803 120.288188 120.311012 120.773653 122.065001 123.474757 123.242007 122.919857 122.335087 121.105861 122.915059 124.050026 126.409916 125.793278 124.092984 122.867215 121.731162 120.114446 119.615030 118.655452 117.310647 116.625261 115.472976 113.751536 112.904614 112.168693 111.323276 108.729117 109.354636 112.229987 110.155903 109.459070 99.338630 97.868780 101.826487 101.846262 101.992014 101.490165 98.663081 99.181303 99.577060 101.656736 101.227850 99.656339 98.210628 98.050824 98.693942 98.257450 97.268720 95.345452 94.999627 94.765770 93.537989 93.248117 92.767802 92.177806 91.930771 91.463916 90.566311 89.650581 90.045186 89.860963 89.623741 89.684426 89.878399 89.820416 85.981252 86.554466 82.580444 81.443510 80.485542 79.489841 78.403268 77.227095 76.093430 75.030116 74.457374 73.639782 72.912384 72.527942 72.500000 71.987392 70.893964 70.459288 67.723620 65.200153 62.561690 60.982605 61.454912 59.816073 54.512268 52.308536 50.516719 45.280275 42.423669 40.131435 37.780587 34.751932 34.466991 31.842704 28.884552 29.651050 29.243379 30.542481 31.404387 30.829340 30.843493 28.510264 25.725387 26.208192 30.402453 35.917432 39.888965 41.129389 41.780244 41.836722 40.935906 40.678454 40.603475 39.701331 39.006211 38.372675 37.332474 36.285959 34.772718 34.197577 32.785737 31.358335 29.903720 28.270897 26.376712 24.244721 22.334109 20.541148 18.942722 17.241672 15.449115 13.743986 11.389373 9.289227 7.448262 6.895534 4.008988 2.958221 0.044830 -6.085326 -99.000000 -99.000000 -99.000000 -99.000000 -99.000000 -99.000000 -99.000000 -99.000000 -99.000000 -99.000000 -99.000000 -99.000000 -99.000000 -99.000000 -99.000000 -99.000000 -99.000000 -99.000000 -99.000000 -99.000000 -99.000000 -99.000000 -99.000000 -99.000000 -99.000000 -99.000000 -99.000000 -99.000000 -99.000000 -99.000000 -99.000000 -99.000000 -99.000000 -99.000000 -99.000000 -99.000000 -99.000000 -99.000000 -99.000000 -99.000000 -99.000000 -99.000000 -99.000000 -99.000000 -99.000000 -99.000000 -99.000000 -99.000000 -99.000000 -99.000000 -99.000000 -99.000000 -99.000000
138.706782 136.731320 135.940154 131.735341 127.864215 127.405092 125.816436 126.104186 127.800558 128.114598 128.203307 128.483646 128.249829 126.927358 126.068985 127.641478 127.770386 127.866018 127.166672 125.611981 125.160923 125.980576 126.423514 126.480289 125.817836 124.282709 122.975811 121.634532 121.047833 119.896239 119.812372 121.446121 123.973220 124.619745 124.809204 124.712154 123.815074 124.518788 125.527683 127.468795 127.424314 124.816391 123.486220 121.994826 120.812919 119.973672 119.238777 118.156960 116.657476 116.929114 115.297266 114.267323 114.581724 113.411256 110.110493 109.116633 110.962881 109.907250 110.331216 103.102723 100.269042 102.013952 103.494313 103.169434 102.538357 101.056395 100.580232 101.083047 101.836096 101.359513 100.221610 99.185912 97.604072 96.985704 96.761837 96.349315 95.355179 95.002969 94.750385 93.653456 93.264045 92.506525 92.001607 91.388190 91.098153 90.629165 90.330181 90.248048 89.961188 89.659333 90.163551 88.595074 89.695798 89.340474 89.336370 83.986929 82.885496 81.972149 80.820995 79.627760 78.365313 77.009855 75.591131 74.525609 73.798860 73.296981 73.057455 72.725873 72.329328 71.718647 71.019133 69.023812 66.000042 63.434445 63.421802 62.739664 60.903379 56.225694 53.482398 50.347107 46.790915 47.662118 46.026495 42.379202 39.505967 37.723859 37.375868 39.791120 36.820247 36.995525 39.585062 39.441597 40.057608 37.893340 36.271434 32.963395 30.666986 28.106699 29.093542 34.635817 38.389978 40.669748 41.855381 41.901103 41.624771 41.267659 40.628225 39.993452 39.456205 38.820566 37.886818 36.311481 35.109377 33.567143 32.217535 30.452858 28.816921 27.056353 25.006099 23.050740 21.394328 19.630434 17.914420 16.491411 14.856465 12.783430 10.580496 8.831477 6.644063 5.702964 4.351744 2.021246 -2.655830 -99.000000 -99.000000 -99.000000 -99.000000 -99.000000 -99.000000 -99.000000 -99.000000 -99.000000 -99.000000 -99.000000 -99.000000 -99.000000 -99.000000 -99.000000 -99.000000 -99.000000 -99.000000 -99.000000 -99.000000 -99.000000 -99.000000 -99.000000 -99.000000 -99.000000 -99.000000 -99.000000 -99.000000 -99.000000 -99.000000 -99.000000 -99.000000 -99.000000 -99.000000 -99.000000 -99.000000 -99.000000 -99.000000 -99.000000 -99.000000 -99.000000 -99.000000 -99.000000 -99.000000 -99.000000 -99.000000 -99.000000 -99.000000 -99.000000 -99.000000 -99.000000 -99.000000 -99.000000
136.399473 136.655341 138.119851 137.563751 128.840004 128.671097 127.352618 127.632159 128.579676 128.889539 128.859465 129.081100 129.009614 128.219391 128.126735 128.915964 129.329605 128.653401 127.525723 126.992302 127.082697 127.298898 127.121930 127.152038 126.898518 126.028572 125.239963 125.143773 125.538948 124.396198 123.544440 124.128888 125.061824 125.505122 126.108619 126.702313 126.402888 126.192976 126.605457 127.929859 128.218107 125.730888 124.579601 123.371048 122.337932 121.476435 120.111143 119.879793 118.483674 118.056140 117.382214 116.308183 115.528564 114.000645 111.995979 111.132571 111.016984 109.029977 109.180411 107.358652 107.522655 104.982478 105.524625 104.840022 105.464416 103.963519 103.094574 102.496003 102.389780 101.730486 101.286548 99.695122 98.237795 97.530531 96.602000 96.252489 95.474937 94.901974 94.352827 93.520644 92.967229 92.484276 92.034473 91.830457 91.554901 91.034334 90.831466 90.468219 90.349905 90.273385 91.151128 90.603598 92.405035 90.906256 91.988716 85.152083 84.105629 83.155819 81.951163 80.792614 79.545314 78.059815 76.740334 75.496941 74.355107 73.681023 73.349493 73.207819 72.909044 72.001690 70.818221 68.913646 66.129514 64.464137 65.066423 63.223998 61.057758 58.810135 56.556286 52.861353 50.322799 55.047598 53.847042 50.292923 46.791265 47.161847 49.865218 48.004113 45.663064 43.361249 43.221341 42.952249 42.278459 41.060087 39.765880 38.737886 36.916153 32.713756 28.526593 26.706789 31.764338 37.872568 41.321840 41.895288 42.000000 41.685490 40.950373 40.641885 40.282418 39.794835 39.099219 37.402295 36.029987 34.373358 32.821355 31.226947 29.447890 27.785252 25.507204 23.679397 21.870281 20.179824 18.576573 17.063876 15.590018 13.640148 11.628509 9.798428 7.651650 7.042298 4.586228 2.109589 -1.966184 -99.000000 -99.000000 -99.000000 -99.000000 -99.000000 -99.000000 -99.000000 -99.000000 -99.000000 -99.000000 -99.000000 -99.000000 -99.000000 -99.000000 -99.000000 -99.000000 -99.000000 -99.000000 -99.000000 -99.000000 -99.000000 -99.000000 -99.000000 -99.000000 -99.000000 -99.000000 -99.000000 -99.000000 -99.000000 -99.000000 -99.000000 -99.000000 -99.000000 -99.000000 -99.000000 -99.000000 -99.000000 -99.000000 -99.000000 -99.000000 -99.000000 -99.000000 -99.000000 -99.000000 -99.000000 -99.000000 -99.000000 -99.000000 -99.000000 -99.000000 -99.000000 -99.000000 -99.000000
134.361895 134.798863 137.933170 138.840484 130.675804 128.966933 129.175333 130.360295 130.578650 129.973065 129.607459 129.919812 130.032979 130.225861 130.407147 130.525322 130.357304 129.390885 128.756786 128.578181 128.395186 128.214117 127.914453 127.892181 127.650341 127.384878 127.144575 128.068177 128.849786 127.664282 127.504961 127.259169 126.891187 126.532597 126.715480 126.892056 126.976751 126.819880 126.995969 127.329855 127.179260 126.273098 126.000678 124.891228 123.997342 123.253152 121.492326 121.032299 120.532838 119.767821 119.174091 117.889838 116.322149 114.233799 113.351240 113.271954 112.348760 109.335225 109.449269 109.658153 110.801066 110.973810 108.904295 107.087196 106.102451 105.208107 105.050775 103.650078 103.129518 102.157177 101.636905 100.028874 98.844218 97.989975 96.909739 96.371577 95.521294 94.891602 94.268917 93.782418 93.228436 92.699307 92.243754 92.285310 92.302781 92.152962 91.626020 91.395766 91.362669 91.772444 91.949262 91.888563 92.473860 92.909079 92.071113 86.573034 85.513883 84.545785 83.335218 82.224815 80.883671 79.690501 77.964616 76.433244 75.874387 75.194002 74.506187 74.196089 73.986195 72.471630 70.717019 69.576098 67.178948 65.496701 65.078094 63.337906 61.830332 61.159944 60.045356 57.503379 55.783995 57.012041 57.207777 56.409446 54.579728 54.630118 53.091951 51.428533 50.491319 47.926093 46.556674 45.425401 44.261350 43.167364 41.973980 41.397147 40.153296 37.229824 33.561523 27.885368 27.072962 32.690217 39.401307 41.402545 41.778502 41.901720 40.918383 40.865126 40.804763 40.487621 40.000813 38.500447 37.160097 35.287764 33.584323 32.128888 30.289821 28.089332 26.850838 24.611399 22.663598 21.160453 19.396620 17.848177 16.223102 14.549211 12.763700 10.932028 8.725325 7.074828 6.384366 3.707555 0.627969 -0.647526 -99.000000 -99.000000 -99.000000 -99.000000 -99.000000 -99.000000 -99.000000 -99.000000 -99.000000 -99.000000 -99.000000 -99.000000 -99.000000 -99.000000 -99.000000 -99.000000 -99.000000 -99.000000 -99.000000 -99.000000 -99.000000 -99.000000 -99.000000 -99.000000 -99.000000 -99.000000 -99.000000 -99.000000 -99.000000 -99.000000 -99.000000 -99.000000 -99.000000 -99.000000 -99.000000 -8.726607 -99.000000 -99.000000 -99.000000 -99.000000 -99.000000 -99.000000 -99.000000 -99.000000 -99.000000 -99.000000 -99.000000 -99.000000 -99.000000 -99.000000 -99.000000 -99.000000
131.714441 132.773396 133.748718 134.744267 131.446548 129.516166 131.234846 134.736063 135.248054 131.835219 129.806626 130.372057 130.945529 131.298634 131.635953 131.043133 130.396282 129.799940 129.312185 129.313315 129.140635 128.997034 128.377072 128.646900 128.612030 128.386137 128.239862 129.196214 129.782172 128.702209 128.575096 127.996320 127.637988 127.411657 127.295282 126.845204 126.450274 126.613916 127.109547 126.913185 126.800203 127.096324 126.742474 126.046788 125.504530 125.168260 123.135317 122.255959 122.335574 121.345596 119.456176 118.504987 116.897272 114.804499 115.357002 114.705607 113.892690 112.076268 111.087093 110.575216 111.080263 111.570178 111.738670 109.889412 107.615617 107.152534 106.226908 104.220598 103.266127 103.372522 102.091515 100.317803 99.277543 98.370053 97.654249 97.038639 95.954787 95.312978 94.563851 94.114772 93.841735 93.245026 93.098675 94.206105 94.791128 94.511189 92.763215 92.536039 92.312096 92.560596 92.672323 93.643770 93.167938 92.432309 91.995508 87.941236 86.808846 85.973568 84.688258 83.606862 82.351534 81.210203 79.549936 78.106185 78.014419 76.897452 76.046372 75.738458 75.358454 73.126014 71.517330 70.477556 68.134394 65.962952 65.412641 64.242687 63.090517 61.953915 60.703195 59.440555 58.096330 57.281937 56.945486 56.555390 55.980192 55.480094 55.946860 57.310259 56.008513 51.716736 49.085973 47.429902 46.000506 44.979342 43.745684 43.157992 42.085666 40.491444 38.956978 36.711323 30.274005 30.049841 35.519790 40.274056 41.748765 42.089972 41.648407 41.525107 41.237658 41.103851 40.688745 39.562263 37.919754 36.103107 34.551327 32.881946 31.157563 29.136196 27.706871 25.692291 23.996038 22.539883 20.311263 18.676766 17.132400 15.422788 13.914764 12.061596 9.696067 7.780952 6.263934 4.712226 3.169230 2.144122 -3.519126 -99.000000 -99.000000 -99.000000 -99.000000 -99.000000 -99.000000 -99.000000 -99.000000 -99.000000 -99.000000 -99.000000 -99.000000 -99.000000 -99.000000 -99.000000 -99.000000 -99.000000 -99.000000 -99.000000 -99.000000 -99.000000 -99.000000 -99.000000 -99.000000 -99.000000 -99.000000 -99.000000 -99.000000 -99.000000 -99.000000 -99.000000 -99.000000 -99.000000 -99.000000 -99.000000 -99.000000 -99.000000 -99.000000 -99.000000 -99.000000 -99.000000 -99.000000 -99.000000 -99.000000 -99.000000 -99.000000 -99.000000 -99.000000 -99.000000 -99.000000 -99.000000
133.351404 132.303522 132.466515 133.448853 133.796284 132.812506 136.645652 139.676549 140.149419 136.154379 131.060460 130.810714 131.560707 131.788018 131.191043 130.669165 130.219033 129.976079 129.779415 129.281601 129.521085 129.679524 129.003438 129.152626 129.163121 129.055980 129.230816 129.289953 130.014586 131.106947 129.898748 128.588106 128.193302 128.041565 127.819380 127.712657 127.072554 127.304479 127.624701 127.021672 127.019681 127.817811 126.964950 126.578655 126.158693 125.807796 124.774287 122.862156 123.038438 119.903428 118.729883 118.566194 116.991209 117.094363 119.135591 116.783039 116.574847 114.440327 112.777513 111.961929 111.861460 112.099816 112.868169 111.413510 109.750207 109.102969 107.889295 104.766615 103.298247 104.824767 103.095382 101.486863 100.227385 99.222780 98.326240 97.582979 96.051601 96.284456 95.771412 94.989948 95.745398 95.581506 96.057237 96.093633 95.592957 94.676906 93.542409 93.518957 93.324323 93.656105 94.318171 95.210872 94.864220 93.675380 93.449761 89.321003 88.251284 87.290811 85.976153 84.704436 83.552668 82.932612 81.591075 81.189732 81.248001 80.025120 78.479871 77.887055 77.473839 75.389761 73.880541 71.219102 68.648144 66.647505 66.066905 65.056327 64.207823 62.775164 61.564783 60.146157 58.991256 57.832425 57.184547 56.906123 56.550927 56.409729 56.735105 57.390973 55.895059 52.590827 51.264242 49.675221 48.108872 46.711579 46.044324 45.100051 44.253473 42.675357 41.154061 40.153158 36.955969 34.566557 34.281335 37.653796 39.489145 42.286860 41.767844 41.470309 41.849037 41.328361 40.966840 39.845209 38.675944 37.023454 35.430672 33.742158 32.036327 30.148447 28.547417 27.014706 25.284669 24.126980 21.643959 19.632479 18.005488 16.210255 14.767552 13.013040 10.652307 8.725618 6.757581 6.373626 3.223375 2.468659 -0.297217 -99.000000 -99.000000 -99.000000 -99.000000 -99.000000 -99.000000 -99.000000 -99.000000 -99.000000 -99.000000 -99.000000 -99.000000 -99.000000 -99.000000 -99.000000 -99.000000 -99.000000 -99.000000 -99.000000 -99.000000 -99.000000 -99.000000 -99.000000 -99.000000 -99.000000 -99.000000 -99.000000 -99.000000 -99.000000 -99.000000 -99.000000 -99.000000 -99.000000 -99.000000 -99.000000 -8.524369 -99.000000 -99.000000 -99.000000 -99.000000 -99.000000 -99.000000 -99.000000 -99.000000 -99.000000 -99.000000 -99.000000 -99.000000 -99.000000 -99.000000 -99.000000
134.785255 133.433755 133.991464 135.360480 136.639780 137.121407 137.481808 136.360727 138.634510 137.435897 134.772292 132.288967 131.698524 131.520334 130.840303 130.610858 130.405239 130.323749 130.305648 129.445076 129.840640 130.168730 129.911005 129.640969 129.464351 129.607417 129.860744 129.688258 130.296959 132.265208 131.303218 129.600078 128.993101 128.622179 128.274625 128.309050 127.860974 128.199792 128.175263 127.665236 127.364644 126.755080 126.748019 127.068320 126.390040 127.027186 127.081216 125.725468 123.337435 120.447848 119.201805 119.451334 118.877483 119.581809 121.067492 120.275777 118.967005 116.264301 114.081985 113.207344 113.261129 113.026520 112.761740 111.300436 111.031710 110.755543 109.814454 105.368266 103.976253 106.483343 104.791480 103.597702 101.790962 100.515110 99.213233 98.667676 97.022822 98.656168 98.346870 98.006013 98.194888 97.483320 96.456743 95.773649 95.089489 95.022850 95.024377 94.768328 95.206466 95.787400 96.259439 96.869200 97.670889 98.257001 96.570281 90.927033 89.886282 88.903892 87.583468 86.304821 84.754037 83.526992 83.118299 83.651052 84.295609 82.863715 81.483577 80.410724 79.530130 78.104402 75.415347 71.734791 70.315906 69.369474 67.860436 66.232375 64.785066 63.358280 62.148276 61.170854 60.100384 59.131261 58.238952 57.648824 57.309830 57.357616 57.604094 57.958622 58.140153 56.379732 54.270517 52.445241 51.834608 49.717839 49.063403 48.028322 46.334558 44.859284 43.415797 42.935698 41.329161 38.719251 36.724150 36.445993 32.966364 32.991924 34.652307 35.007963 40.638773 41.761768 42.635538 37.824615 37.473028 38.304803 36.546215 34.636956 32.988533 31.176395 29.129198 28.327666 27.062841 25.498897 23.554718 20.998685 18.564269 17.065470 15.231831 13.877088 11.581415 9.787257 7.662330 7.046235 4.076557 3.616129 2.051844 -3.401794 -99.000000 -99.000000 -99.000000 -99.000000 -99.000000 -99.000000 -99.000000 -99.000000 -99.000000 -99.000000 -99.000000 -99.000000 -99.000000 -99.000000 -99.000000 -99.000000 -99.000000 -99.000000 -99.000000 -99.000000 -99.000000 -99.000000 -99.000000 -99.000000 -99.000000 -99.000000 -99.000000 -99.000000 -99.000000 -99.000000 -99.000000 -99.000000 -99.000000 -99.000000 -99.000000 -7.676546 -99.000000 -99.000000 -99.000000 -99.000000 -99.000000 -99.000000 -99.000000 -99.000000 -99.000000 -99.000000 -99.000000 -99.000000 -99.000000 -99.000000
133.340068 133.514445 134.691373 135.921211 137.772792 137.887892 135.960234 132.956148 134.088444 135.408200 137.414304 136.733894 134.731478 131.663834 130.932200 130.845110 130.714298 130.778647 130.255007 130.298281 130.284657 130.452019 130.558635 130.256686 129.956074 130.141930 130.193993 130.214133 130.535192 131.410503 131.661085 131.363467 129.679744 129.306225 128.989146 128.627703 128.591344 128.533346 128.288630 128.673430 127.680619 125.294885 126.333476 127.645601 127.415039 128.843224 128.480452 125.895128 123.881579 122.307024 121.537999 123.020094 125.327945 126.612770 121.275814 123.099150 119.076653 118.064814 116.176146 114.945275 114.377104 113.803773 113.245139 112.565547 112.314015 112.725022 111.444109 105.727442 106.401806 108.749591 106.407146 104.979383 103.800586 102.480338 101.390092 101.384492 101.227568 100.796064 99.823506 99.465860 98.489232 97.393073 96.703212 96.471974 96.225944 96.393702 96.759757 96.732740 97.444324 97.508563 97.750746 97.909697 99.159735 101.914829 99.334862 92.516232 91.406542 90.341007 89.136039 87.738946 86.109155 84.784545 84.622936 85.201146 85.676375 84.270770 83.245531 82.364058 81.115522 79.928642 75.991399 73.896347 73.316221 72.110575 70.310546 68.171516 66.755446 65.043309 63.302369 62.227213 61.233056 60.377150 59.657535 58.949636 58.724535 58.636071 58.726093 59.097626 59.536442 59.688876 58.394124 57.074634 55.455354 52.230409 51.503459 49.909054 48.470602 46.656734 45.089781 43.774358 42.842855 40.986842 39.407434 38.318559 34.616409 31.589094 27.988716 27.202521 30.861628 33.173775 34.588721 28.855037 30.378942 35.069178 36.342597 33.641136 30.628145 30.881108 27.005576 29.189116 28.388375 27.001869 25.012072 22.196785 19.395159 17.890806 15.960494 14.317977 12.235176 10.271658 8.286607 6.424896 6.092166 4.479420 2.184108 -0.132982 -99.000000 -99.000000 -99.000000 -99.000000 -99.000000 -99.000000 -99.000000 -99.000000 -99.000000 -99.000000 -99.000000 -99.000000 -99.000000 -99.000000 -99.000000 -99.000000 -99.000000 -99.000000 -99.000000 -99.000000 -99.000000 -99.000000 -99.000000 -99.000000 -99.000000 -99.000000 -99.000000 -99.000000 -99.000000 -99.000000 -99.000000 -99.000000 -99.000000 -99.000000 -99.000000 -99.000000 -99.000000 -5.593392 -99.000000 -99.000000 -99.000000 -99.000000 -99.000000 -99.000000 -99.000000 -99.000000 -99.000000 -99.000000 -99.000000 -99.000000
133.200970 133.324376 134.766894 135.528758 137.419614 136.328205 134.486060 132.729400 134.089046 134.831367 136.961962 139.463860 139.224700 131.356455 132.655006 131.757870 131.207060 130.792663 130.530205 130.819820 130.865159 131.023204 130.751916 130.491621 130.256610 130.514951 130.588876 130.484915 130.644069 130.778438 131.418070 132.345697 129.828774 129.081103 129.165589 129.195961 129.317266 129.300822 128.755188 129.130676 127.382580 125.459921 128.321570 128.907455 129.923570 130.169732 128.442095 125.852426 124.939602 124.210478 123.961879 127.674484 129.465737 127.808666 124.018980 122.017733 119.083135 118.772132 117.901898 116.568797 115.454362 114.699296 114.207464 113.809528 113.660277 113.403469 111.607040 106.791239 109.097027 110.047459 108.041158 106.615952 106.099086 104.973410 104.521368 104.214420 103.234457 100.457103 100.178715 100.189986 99.295663 98.620636 98.184157 98.463691 98.162439 98.357179 98.494018 98.436024 98.604359 98.224269 98.811305 99.098295 100.187903 102.669838 103.576519 93.998997 93.011506 92.049403 90.862259 89.595136 87.893643 86.550782 86.320331 87.080981 87.248346 84.999793 84.923721 84.182181 83.051123 81.657300 79.020023 77.255171 76.231896 75.086952 73.115049 70.847853 69.109285 67.107906 65.501238 64.174525 62.976340 61.983444 61.381580 60.789275 60.520139 60.356550 60.365907 60.619111 61.186847 61.836701 62.387689 61.498758 57.798758 54.335737 54.692975 53.786228 51.780395 47.795400 46.156162 44.809910 44.213757 42.485273 41.486330 40.714837 38.670483 35.300138 28.999324 29.105124 27.128337 25.438572 25.181453 22.398356 21.579487 23.132027 27.088763 20.927219 21.232994 20.184925 18.408861 27.545480 29.895521 28.329412 26.003060 22.537175 20.364665 18.825192 17.023264 14.937414 13.103724 11.115773 9.000440 6.835410 7.673131 6.779623 3.449374 2.061263 -99.000000 -99.000000 -99.000000 -99.000000 -99.000000 -99.000000 -99.000000 -99.000000 -99.000000 -99.000000 -99.000000 -99.000000 -99.000000 -99.000000 -99.000000 -99.000000 -99.000000 -99.000000 -99.000000 -99.000000 -99.000000 -99.000000 -99.000000 -99.000000 -99.000000 -99.000000 -99.000000 -99.000000 -99.000000 -99.000000 -99.000000 -99.000000 -99.000000 -99.000000 -99.000000 -99.000000 -99.000000 -99.000000 -3.289007 -99.000000 -99.000000 -99.000000 -99.000000 -99.000000 -99.000000 -99.000000 -99.000000 -99.000000 -99.000000 -99.000000
133.414188 133.588039 134.719797 134.801746 136.088231 134.517148 135.984338 133.521564 132.428547 134.347621 136.372084 137.893116 138.957415 139.353593 138.370497 135.460056 131.904740 131.395148 131.280616 130.915043 130.767668 130.864357 130.515001 130.870683 130.858695 130.975266 130.703829 130.846995 130.905571 130.918390 130.837247 130.820682 128.857347 128.388672 129.447671 129.638035 129.835117 129.874059 129.610118 129.533864 126.707660 125.901003 131.478589 130.558674 130.307924 130.004321 127.971117 127.366666 126.312425 125.553377 128.517977 131.420196 130.204201 127.532084 122.334578 119.885607 119.170777 118.831126 118.099250 117.956462 117.151014 116.331996 115.674328 115.371050 115.270041 113.927082 111.617461 108.940826 111.159030 112.749566 110.387445 108.339966 107.952447 107.003872 106.083494 105.048486 103.406118 102.631255 102.323704 102.021485 101.062021 101.247711 100.675683 100.822349 100.021262 100.080039 100.015255 99.530267 99.251834 98.609621 99.512170 100.214188 101.419979 103.996905 103.116737 95.740172 94.670685 93.825262 92.789170 91.667354 89.986329 87.455897 88.333176 88.207094 87.918504 86.478681 86.739546 85.848503 85.071205 84.655179 82.431568 80.109630 78.589614 76.714257 75.477021 73.437744 71.833954 69.525855 68.100578 66.492131 65.089542 64.040884 63.281660 62.730307 62.377385 62.127171 62.173458 62.415607 62.466215 63.047125 63.664475 64.023542 61.197462 59.056847 59.056806 57.116278 51.777000 48.896186 48.302259 47.628611 45.074684 44.380035 43.207705 41.636144 39.844481 37.570074 33.058998 33.881543 30.738151 30.081779 25.212967 22.021251 20.832908 20.620243 17.398906 14.597656 14.507221 14.511985 14.947116 22.701786 29.436649 30.077092 27.142976 21.908719 20.165254 20.350714 17.865903 15.897842 13.761461 12.232726 10.195753 7.405619 8.494707 9.475619 5.390032 1.448523 -99.000000 -99.000000 -99.000000 -99.000000 -99.000000 -99.000000 -99.000000 -99.000000 -99.000000 -99.000000 -99.000000 -99.000000 -99.000000 -99.000000 -99.000000 -99.000000 -99.000000 -99.000000 -99.000000 -99.000000 -99.000000 -99.000000 -99.000000 -99.000000 -99.000000 -99.000000 -99.000000 -99.000000 -99.000000 -99.000000 -99.000000 -99.000000 -99.000000 -99.000000 -99.000000 -99.000000 -99.000000 -99.000000 -99.000000 -3.586112 -99.000000 -99.000000 -99.000000 -99.000000 -99.000000 -99.000000 -99.000000 -99.000000 -99.000000 -99.000000
134.715354 134.715185 134.770795 133.112835 133.389085 130.885906 133.617200 133.579278 132.871975 134.158765 136.027362 137.266333 137.809656 137.512587 139.179624 140.252152 136.506885 133.175386 132.075315 131.581714 131.352218 130.998879 131.462050 131.685586 131.156661 131.342583 131.549907 131.650445 131.568738 131.421015 131.161246 130.528622 129.056100 128.838921 129.904996 130.472272 130.611175 130.632171 130.553838 130.479982 128.302287 128.286323 132.237783 132.360995 130.470963 129.726427 128.554534 128.016816 127.111252 128.354811 132.024447 130.779098 126.986519 124.956554 122.007519 121.416558 120.834925 120.162411 119.032188 119.365713 119.107161 118.581609 117.440826 117.732135 118.456444 115.909838 113.069432 112.316815 112.734345 112.970148 111.528073 110.020525 109.428839 108.554400 107.493331 106.737793 105.605980 105.388246 104.724337 104.187393 103.585942 103.895545 102.973002 102.366058 101.829153 101.500501 100.800608 100.300237 100.325417 100.288284 100.873361 101.285920 102.819184 105.373532 103.059950 97.110143 96.315748 95.531275 94.710781 93.694579 92.478975 91.075820 90.227821 89.660230 88.733131 87.938453 88.311755 87.518084 86.666290 86.349410 85.288099 83.251773 81.267784 79.259638 77.177314 75.796288 74.272191 72.239048 70.506642 68.902939 67.415443 66.318311 65.361883 64.668349 64.339245 64.097643 63.851333 63.857731 63.965354 64.078970 64.535543 65.121926 64.011144 62.822292 62.784700 59.194844 52.662704 50.470826 50.399148 49.371554 46.985067 45.489837 43.714888 42.269855 40.774881 39.153815 38.294801 38.719029 36.788927 34.906248 29.068849 22.440261 21.737798 19.667269 17.014140 15.828445 15.450808 14.857949 14.704084 15.233135 24.221791 30.598217 28.337331 21.780655 18.557140 20.837100 18.636179 17.068568 14.982816 13.667539 11.687372 8.038341 5.496388 3.042012 1.453814 -99.000000 -99.000000 -99.000000 -99.000000 -99.000000 -99.000000 -99.000000 -99.000000 -99.000000 -99.000000 -99.000000 -99.000000 -99.000000 -99.000000 -99.000000 -99.000000 -99.000000 -99.000000 -99.000000 -99.000000 -99.000000 -99.000000 -99.000000 -99.000000 -99.000000 -99.000000 -99.000000 -99.000000 -99.000000 -99.000000 -99.000000 -99.000000 -99.000000 -99.000000 -99.000000 -99.000000 -99.000000 -99.000000 -99.000000 -99.000000 -2.761225 -99.000000 -99.000000 -99.000000 -99.000000 -99.000000 -99.000000 -99.000000 -99.000000 -99.000000 -99.000000
137.786180 137.944870 136.236381 133.525321 134.172952 133.640541 134.002685 135.256011 134.183925 134.663510 137.417376 138.877922 138.803962 137.959757 139.190355 140.519714 140.389518 137.461235 134.451700 132.343404 131.841909 131.477483 132.076187 131.797151 131.501924 131.389930 131.765174 131.647696 131.679931 131.628095 131.476497 131.109912 130.663561 130.562848 130.931373 131.198520 131.186015 131.406915 131.379110 131.331033 129.619983 129.969757 132.744924 132.550674 130.578673 129.935279 129.305740 128.765204 129.435364 131.569756 130.626177 126.592772 124.873755 124.190148 123.254060 122.369041 121.716512 121.065068 119.919510 120.054276 120.231105 120.063518 119.700593 120.367737 122.927190 120.171448 117.683891 116.313009 114.543155 113.631754 112.154199 111.550133 110.893025 110.034197 108.921324 108.481937 107.635543 108.069584 107.223680 106.616145 105.951811 105.667070 104.578276 103.800515 102.881763 102.666633 102.231734 102.295912 102.446690 102.451369 102.331011 102.853420 104.666536 106.263696 102.878752 98.803861 98.072761 97.429321 96.689964 95.983686 95.229703 94.497043 93.232874 92.731011 91.616453 91.026799 90.857680 89.557655 88.458884 88.012000 86.901896 86.013966 84.681589 82.863702 80.776357 78.750764 77.309772 75.503451 73.759139 72.201029 70.647323 69.559788 68.520058 67.576955 66.873954 66.425550 66.054627 65.820674 65.698168 65.696539 65.634472 65.993267 65.813655 65.242850 64.912673 64.049197 57.183659 54.110696 51.591533 53.150492 49.748041 48.394012 46.785366 44.499311 42.192336 40.767564 40.632571 41.003448 41.241603 41.290363 39.394822 30.814723 28.702785 23.616232 18.689750 18.147616 17.352886 15.820155 14.856049 15.091755 20.582126 28.710967 29.446820 25.267612 22.139702 22.320486 21.147695 19.393653 17.911520 16.291640 14.579887 12.105356 8.107182 1.118490 -0.954342 -99.000000 -4.215279 -3.536722 -3.728130 -99.000000 -99.000000 -99.000000 -99.000000 -99.000000 -99.000000 -99.000000 -99.000000 -99.000000 -99.000000 -99.000000 -99.000000 -99.000000 -99.000000 -99.000000 -99.000000 -99.000000 -99.000000 -99.000000 -99.000000 -99.000000 -99.000000 -99.000000 -99.000000 -99.000000 -99.000000 -99.000000 -99.000000 -99.000000 -99.000000 -99.000000 -99.000000 -99.000000 -99.000000 -99.000000 -2.765531 -99.000000 -99.000000 -99.000000 -99.000000 -99.000000 -99.000000 -99.000000 -99.000000 -99.000000 -99.000000 -99.000000
139.765825 140.032976 138.025006 134.385630 135.447043 136.901785 135.605356 135.950458 135.413132 136.959117 139.462551 140.874474 140.926713 139.608261 140.268426 140.845054 141.060329 139.348556 136.430624 134.177809 132.470262 132.184170 132.167299 131.986749 131.900215 131.649260 131.687509 131.854062 131.960274 132.125613 131.828252 131.806362 131.571118 131.543117 131.832041 132.105175 132.150025 131.819347 131.839020 131.987772 130.520234 130.600168 132.752931 133.141193 131.524998 130.722016 130.567092 130.706248 133.282041 133.677809 129.221911 125.993872 125.831004 125.442909 124.500349 123.361443 123.078867 122.389885 121.276284 120.995936 121.440821 121.277010 121.561052 121.693201 123.301342 123.394995 122.486689 119.256237 117.444828 116.116629 114.693380 113.778823 112.565578 111.803720 110.366830 109.878801 109.032732 108.792032 108.327245 108.427675 108.099577 106.939192 106.341690 105.649289 104.530529 104.219294 104.552451 104.292193 103.918118 103.707027 103.637856 104.540491 106.473570 108.087131 104.078592 100.290468 99.593121 99.028915 98.440142 97.868892 97.192803 96.149164 96.164793 95.313227 94.747956 93.471912 93.040462 91.821682 90.400431 89.602517 88.457970 87.537332 86.366927 84.851549 83.119798 81.146722 79.711952 77.763705 76.156301 74.561839 73.179781 71.888650 70.851198 69.801001 69.088684 68.293118 67.895286 67.464304 67.015658 66.830074 66.794668 66.849112 66.836748 66.228843 65.595516 64.555194 61.068627 57.512750 53.451429 53.449380 52.506588 51.196983 50.165568 46.095827 44.640716 43.501686 43.190306 43.224922 43.283229 43.015729 42.229989 37.465549 31.876191 25.958526 21.942450 20.831650 19.656216 16.963251 15.780579 15.579578 17.441045 24.147788 29.249827 28.302596 26.789213 25.193050 23.336144 21.627069 19.961231 18.163559 16.596217 15.397882 13.016584 9.376652 7.816814 6.624025 1.335609 -1.348986 0.112110 -4.171711 -99.000000 -99.000000 -99.000000 -99.000000 -99.000000 -99.000000 -99.000000 -99.000000 -99.000000 -99.000000 -99.000000 -99.000000 -99.000000 -99.000000 -99.000000 -99.000000 -99.000000 -99.000000 -99.000000 -99.000000 -99.000000 -99.000000 -99.000000 -99.000000 -99.000000 -99.000000 -99.000000 -99.000000 -99.000000 -99.000000 -99.000000 -99.000000 -99.000000 -99.000000 -99.000000 -99.000000 -99.000000 -99.000000 -99.000000 -99.000000 -2.181613 -2.316702 -2.319535 -1.893003 -99.000000 -99.000000
138.672622 138.158072 136.472728 133.214421 134.932488 137.048843 134.855872 136.097118 136.803957 138.649708 141.668748 143.214626 142.691962 141.077938 142.028293 141.529058 140.646433 138.481234 135.832061 135.337718 134.140898 133.809467 132.603345 132.215388 132.051870 132.338589 131.954978 132.165930 132.232314 132.349255 132.103399 132.437308 132.263627 132.221505 132.166546 132.528934 133.077392 132.511961 132.464676 133.180976 131.692807 131.158436 132.939061 133.922274 132.821292 132.093495 132.351416 132.373615 134.076874 132.056056 128.679423 127.696679 126.933565 126.451826 125.483705 124.472357 124.597543 123.873502 122.427435 122.147820 122.880738 123.025290 122.909612 122.490582 122.759087 124.882315 126.048296 122.241841 119.281511 118.696115 117.424762 116.480687 115.211998 113.828058 112.667911 111.729504 110.514769 109.331415 109.109078 110.049296 109.461066 108.591575 108.222987 107.739400 107.273270 106.493570 107.182221 105.976363 105.336271 105.181155 105.271262 106.297593 108.513056 108.912845 104.901599 101.771497 101.166356 100.661215 100.195020 99.763972 99.367900 99.342222 99.819619 99.988768 97.975971 95.995994 95.602834 95.008765 92.637121 91.134558 89.923302 88.983204 87.780698 86.384994 84.795450 83.067333 81.577915 80.075652 78.525724 76.761591 75.351126 74.041417 72.831751 72.051241 70.982784 70.196700 69.458397 68.942202 68.469777 68.063428 67.868398 67.732974 67.675442 67.278708 66.651459 66.013900 64.600291 61.083163 56.470748 54.189476 54.944181 55.046600 53.282393 48.978275 47.674595 45.540221 45.231120 45.312042 44.134355 44.071146 42.556523 40.090124 36.773708 27.406733 26.153280 24.258889 22.069107 20.125779 16.957001 17.179523 17.293134 19.896953 25.239144 29.683820 28.308737 26.954292 24.937889 23.181592 21.188306 19.526051 18.080344 16.829417 15.392337 14.219579 13.446864 11.932876 6.782276 4.041570 2.331148 -1.043693 -99.000000 -99.000000 -99.000000 -99.000000 -99.000000 -99.000000 -99.000000 -99.000000 -99.000000 -99.000000 -99.000000 -99.000000 -99.000000 -99.000000 -99.000000 -99.000000 -99.000000 -99.000000 -99.000000 -99.000000 -99.000000 -99.000000 -99.000000 -99.000000 -99.000000 -99.000000 -99.000000 -99.000000 -99.000000 -99.000000 -99.000000 -99.000000 -99.000000 -3.642695 -99.000000 -99.000000 -99.000000 -99.000000 -3.041929 -2.971079 -99.000000 -99.000000 -99.000000 -99.000000 -99.000000 -99.000000
138.717026 137.359928 135.848319 134.199799 137.397194 138.309344 137.269068 138.131827 137.842330 139.767049 142.110114 144.878762 145.185304 143.170345 142.668141 142.167365 141.288078 138.679807 136.179725 134.168424 134.999812 135.840475 135.125068 133.933801 132.416503 132.989160 132.635396 132.133322 132.384740 132.221610 132.372364 132.807021 132.838560 132.694928 132.488486 132.914169 133.898067 133.569991 133.250983 133.635293 131.549833 131.456625 132.817093 133.209227 134.042871 134.023186 134.443205 134.893021 132.228834 130.050505 129.800845 129.118010 127.559464 126.881833 125.983766 125.485564 125.290039 124.607567 123.043303 122.870640 123.785202 124.470310 124.033479 123.765199 124.074382 124.576076 126.842736 126.488810 121.071118 120.027649 119.296901 118.774818 117.291798 115.958340 115.051550 113.899923 112.923174 111.936183 111.679539 112.248699 111.796453 111.455161 110.536668 110.185607 109.993556 108.914912 108.442020 107.347419 107.185321 107.210044 107.034132 108.304717 110.578035 110.401127 106.374100 103.328498 102.828166 102.351355 101.936886 101.670218 101.647311 102.067358 103.530983 104.887240 102.652488 99.379273 98.334597 97.124580 94.792489 93.204379 91.593115 90.788237 89.694235 88.303869 86.726818 85.296425 84.096915 82.394781 80.733636 79.237045 77.790705 76.326988 75.273042 74.129138 73.100658 72.170467 71.422350 70.661805 70.191818 69.571482 69.129550 68.725214 68.536189 68.325873 67.879079 67.044459 65.877134 64.125122 62.115941 61.654635 61.517197 58.252623 52.513498 50.265268 47.878580 47.018096 48.048903 44.515966 44.797986 43.768789 42.003944 40.841662 39.580171 37.009546 33.294487 30.316998 28.982382 22.306183 20.555993 21.800508 19.726418 19.074461 19.093745 23.973847 28.247012 28.045230 26.635785 24.829710 22.754626 20.891357 19.405820 18.228244 17.187541 16.096199 14.648063 12.589088 9.306761 6.747460 4.099883 1.589490 -3.350628 -99.000000 -99.000000 -99.000000 -99.000000 -99.000000 -99.000000 -99.000000 -99.000000 -99.000000 -99.000000 -99.000000 -99.000000 -99.000000 -99.000000 -99.000000 -99.000000 -99.000000 -99.000000 -99.000000 -99.000000 -99.000000 -99.000000 -99.000000 -99.000000 -99.000000 -99.000000 -99.000000 -99.000000 -99.000000 -99.000000 -99.000000 -99.000000 -99.000000 -99.000000 -99.000000 -99.000000 -2.804071 -2.753434 -99.000000 -99.000000 -99.000000 -99.000000 -99.000000 -99.000000 -99.000000
140.732227 138.463732 136.812141 135.951817 138.540915 140.584078 141.311737 140.497456 140.181665 141.379284 142.350101 144.593104 145.821103 145.915371 144.914902 143.576708 141.455233 138.700713 136.571463 133.946135 134.016619 135.964676 137.308787 138.046134 136.735536 134.493482 133.083145 132.522926 133.125262 133.109582 132.963673 132.582905 132.983686 133.259426 133.017094 133.217485 134.165337 134.321740 133.776016 133.452599 132.294681 131.974378 132.685647 132.983418 134.861855 135.462942 135.837551 134.306972 132.250161 130.880589 130.016661 129.238304 127.887377 127.396367 126.240327 125.756515 125.715987 125.102295 124.880944 124.129300 124.471705 124.518733 124.549213 124.598322 124.870483 125.142929 126.896850 128.091518 122.927343 122.015575 120.768672 120.182901 119.013701 118.417550 116.574314 116.013042 115.263063 114.166925 114.130209 114.986810 115.342476 114.589647 113.652126 112.318312 111.259542 110.063177 109.484033 108.659847 108.984797 108.567930 109.064312 110.524497 112.384319 110.867291 107.376744 104.866219 104.388781 103.958934 103.616640 103.503633 103.575335 104.130406 105.155920 105.733681 104.446832 101.952896 100.031332 97.949777 97.846673 96.043629 93.938091 92.646658 91.396566 89.818318 88.372502 86.928433 85.782089 84.263530 82.747200 81.250481 79.764432 78.220195 77.116342 75.963228 74.950539 73.960759 73.014418 72.282567 71.427482 70.690217 70.258608 69.765652 69.390850 69.047018 68.439332 67.585584 66.269442 64.723667 63.991245 62.676485 61.363574 60.534275 58.495778 57.808372 55.674869 53.986903 50.898752 48.095104 48.175446 46.349710 46.111892 45.282480 43.307493 40.776436 37.613656 34.114530 31.405747 25.355227 23.109361 22.370579 21.825730 17.453676 17.759621 19.491951 22.031101 25.901391 26.330506 25.285911 23.853289 22.016146 20.325395 19.057892 17.807534 16.792965 15.565340 14.081302 12.197981 9.772329 6.914522 3.411482 2.679033 -1.142929 -99.000000 -99.000000 -99.000000 -99.000000 -99.000000 -99.000000 -99.000000 -99.000000 -99.000000 -99.000000 -99.000000 -99.000000 -99.000000 -99.000000 -99.000000 -99.000000 -99.000000 -99.000000 -99.000000 -99.000000 -99.000000 -99.000000 -99.000000 -99.000000 -99.000000 -99.000000 -99.000000 -99.000000 -99.000000 -99.000000 -99.000000 -99.000000 -99.000000 -99.000000 -4.762777 -2.731716 -99.000000 -99.000000 -99.000000 -99.000000 -99.000000 -99.000000 -99.000000 -99.000000
142.590603 140.240642 138.822598 138.114139 139.500752 142.348219 143.718858 142.994324 142.404691 143.112021 143.629065 144.968252 145.603206 145.794578 145.932844 145.298243 142.262472 138.292677 136.606553 134.237521 134.213630 136.455092 137.858070 139.198384 140.448959 139.581211 137.060059 134.324248 133.068639 133.101402 133.064009 132.541328 133.277953 133.438518 133.318718 133.621944 134.908752 134.957858 134.340312 133.702513 132.522134 132.233926 132.723405 133.759641 135.426545 136.116745 135.017122 132.274176 131.894531 131.560368 130.716020 129.750365 128.999705 127.775866 126.811432 125.998055 126.363508 125.677718 125.346903 125.197644 125.729547 125.990718 125.497281 125.383272 125.693696 125.899135 127.085301 127.655061 125.581469 123.993990 122.837191 122.983558 122.467387 122.496206 119.301971 117.494582 116.527673 115.823616 115.672198 117.933048 118.439977 117.067750 114.893253 113.608110 112.006645 111.255303 111.463110 110.629908 111.103161 110.235788 110.904709 112.637846 115.128337 113.027780 109.080925 106.273274 105.742487 105.384799 105.092505 104.979096 105.114067 105.601964 106.161274 106.361208 105.673931 104.579310 102.190245 100.654421 100.229209 97.707025 95.565202 93.918656 92.545325 91.065996 89.642714 88.229239 87.071844 85.595592 84.082069 82.749679 81.333181 79.904313 78.726847 77.488565 76.331534 75.182135 74.207810 73.401367 72.587624 71.814938 71.198743 70.708999 70.300171 69.748184 68.948096 67.996063 66.396615 64.831477 63.795462 62.725416 61.274099 60.266282 59.087423 57.992558 57.176501 55.213628 52.897802 51.576128 49.956539 48.995586 47.803508 45.714240 44.307598 42.144915 39.640126 36.320645 32.933870 29.214859 27.365062 25.517652 22.228430 17.641741 17.378213 18.257025 19.586816 21.412770 23.552807 25.352644 24.691757 23.031393 21.278035 19.623653 18.819537 17.995853 17.014741 15.810534 14.350562 12.531684 10.367561 6.476752 -0.056768 -15.811563 -99.000000 -99.000000 -99.000000 -99.000000 -99.000000 -99.000000 -99.000000 -99.000000 -99.000000 -99.000000 -99.000000 -99.000000 -99.000000 -99.000000 -99.000000 -99.000000 -99.000000 -99.000000 -99.000000 -99.000000 -99.000000 -99.000000 -99.000000 -99.000000 -99.000000 -99.000000 -99.000000 -99.000000 -99.000000 -99.000000 -99.000000 -99.000000 -99.000000 -2.760000 -2.760000 -99.000000 -99.000000 -99.000000 -99.000000 -99.000000 -99.000000 -99.000000 -99.000000 -99.000000
145.427363 141.424914 140.544519 140.679269 140.895248 143.141160 144.907549 146.156617 144.811161 144.871778 144.987512 145.716574 146.137587 145.652748 145.515622 145.117411 142.796736 139.076737 137.356751 134.821558 135.376987 137.129156 137.892694 138.777368 140.657211 142.428040 142.616880 139.300446 135.390744 133.420387 132.774958 133.102286 133.412086 133.425902 133.699872 134.488351 135.369214 134.778183 134.385054 133.858952 132.626792 132.410547 133.512580 134.949664 135.965135 135.367198 133.158880 132.277423 131.696009 131.763603 131.379617 130.431387 129.744017 128.283775 127.655635 126.692402 127.180760 126.482641 125.821885 128.889458 130.298533 130.167455 128.636985 125.767773 127.098454 128.180097 128.469020 129.349838 128.543215 127.953648 128.621423 127.956535 128.079173 128.967436 126.124119 121.850755 118.536769 118.168514 119.365998 120.804172 120.524138 119.248094 116.735947 115.622800 116.716575 115.523693 114.351320 113.415255 113.078425 112.126705 112.826749 114.942577 116.711243 113.853023 110.226858 107.664501 107.191245 106.896056 106.567900 106.410945 106.500935 106.776319 107.060229 107.146233 106.751329 106.202656 105.518603 104.322857 102.529640 100.632464 97.929636 95.848166 94.064867 92.572522 91.152856 89.879410 88.659170 87.238853 85.920887 84.569631 83.144437 81.777489 80.562495 79.402947 78.199584 76.959849 75.814175 75.067517 74.052079 73.271616 72.568874 72.141299 71.913051 71.151997 69.841245 68.570939 66.848442 65.254334 62.648814 62.137739 61.148647 59.972421 59.003133 57.809104 57.038365 55.903979 54.592366 52.835132 51.895004 50.838831 49.064246 47.801205 45.592670 44.058640 40.977191 38.475891 35.776506 32.471097 27.659950 23.213950 20.106102 18.336630 17.826521 18.301893 17.699526 17.762148 18.179144 18.870507 19.080214 20.921891 22.076156 20.643569 19.893211 19.163822 18.255647 17.098862 15.824045 14.408238 12.849091 9.661154 4.879512 -2.063658 -3.527510 -0.653671 -99.000000 -99.000000 -99.000000 -99.000000 -99.000000 -99.000000 -99.000000 -99.000000 -99.000000 -99.000000 -99.000000 -99.000000 -99.000000 -99.000000 -99.000000 -99.000000 -99.000000 -99.000000 -99.000000 -99.000000 -99.000000 -99.000000 -99.000000 -99.000000 -99.000000 -99.000000 -99.000000 -99.000000 -99.000000 -2.760000 -2.755073 -2.760000 -99.000000 -99.000000 -99.000000 -99.000000 -99.000000 -99.000000 -99.000000 -99.000000 -99.000000 -99.000000
145.166861 143.127030 142.348363 142.869062 142.389876 143.954896 144.974020 147.389186 146.904139 147.244861 146.682274 146.355312 145.938837 145.791572 145.395479 144.296321 141.677937 139.158070 138.894063 136.681478 136.795857 137.913447 138.705830 138.802308 139.867471 141.456824 142.554218 142.103952 140.158578 136.428045 133.762901 133.221141 133.442215 133.617831 134.246539 134.817847 134.609258 134.034286 134.349853 134.563973 132.610598 132.598591 134.286569 135.281746 135.271735 134.142607 132.973011 132.976021 132.023202 132.170137 131.909008 130.885137 130.504793 128.906049 127.864656 127.419877 128.045009 128.989021 129.227644 134.019224 134.123009 133.665840 132.124696 129.698231 131.333346 131.862648 130.542185 132.265062 131.451153 131.185801 133.784432 131.533683 129.173043 130.769733 128.849063 126.681252 123.242853 123.886916 124.772202 123.436179 122.237595 121.272227 119.586965 117.207859 119.224301 117.888681 116.181024 115.255976 114.286532 113.971326 114.964638 117.054102 118.288439 114.885388 111.381543 109.000251 108.542791 108.131858 107.822829 107.676351 107.655465 107.772151 107.811046 107.788837 107.488267 106.977254 106.413289 105.519453 104.239063 102.396371 100.061488 97.507492 95.486144 93.739341 92.254906 91.008122 89.835403 88.427900 87.133437 85.859059 84.552186 83.208477 81.992004 80.693696 79.461306 78.308505 77.107955 76.322425 75.167444 74.386083 73.577902 73.256016 73.232393 72.612476 71.228639 69.452693 68.294785 67.640119 64.238329 63.183019 61.271636 60.279700 59.156445 57.662870 57.004294 56.417573 54.720421 54.107381 52.868538 51.251555 49.950565 48.058117 46.413964 44.083126 42.255600 39.734208 36.954660 32.776588 26.868032 23.433213 22.119284 21.541256 19.852112 18.603899 17.820287 17.119712 16.798335 16.564629 18.087260 18.343166 20.944248 19.850907 20.467768 20.010842 19.096470 17.930672 16.729678 15.493778 14.190659 12.820705 11.124319 8.440323 7.698525 3.794654 -3.067451 -99.000000 -99.000000 -99.000000 -99.000000 -99.000000 -99.000000 -99.000000 -99.000000 -99.000000 -99.000000 -99.000000 -99.000000 -99.000000 -99.000000 -99.000000 -99.000000 -99.000000 -99.000000 -99.000000 -99.000000 -99.000000 -99.000000 -99.000000 -99.000000 -99.000000 -99.000000 -2.766628 -2.760000 -2.766644 -99.000000 -99.000000 -99.000000 -99.000000 -99.000000 -99.000000 -99.000000 -99.000000 -99.000000 -99.000000 -99.000000 -99.000000
142.896821 144.499767 144.332684 144.318884 144.757515 145.329787 143.009439 145.124783 146.587095 147.841321 148.249228 147.796888 146.631318 145.804704 145.149461 143.618780 140.569667 138.343795 138.668321 138.504361 138.868951 139.043875 139.132947 139.344824 139.885642 140.328776 140.936868 141.266728 141.188699 140.516580 137.809247 134.530898 133.320666 133.410488 134.377884 134.423213 133.983320 133.925878 134.154408 134.465749 132.927363 133.564564 135.006402 135.000646 133.711173 133.373057 133.894696 134.359615 132.638292 132.267857 131.958706 131.027916 130.915331 129.437901 128.354681 127.557475 130.607016 132.949903 131.919850 133.578430 134.275125 133.992392 132.160546 132.328263 134.242269 133.499050 132.152589 133.416048 132.124879 131.162988 132.804085 131.940242 132.530540 131.699883 130.343131 128.221725 127.535083 128.469124 127.064442 125.093732 123.399331 121.885561 122.315171 121.190004 120.505028 119.671853 118.188649 116.896231 115.384643 115.592037 117.018193 118.528207 119.732917 116.427664 112.902827 110.283670 109.791828 109.405010 109.082224 108.910939 108.763346 108.714639 108.617046 108.475836 108.039262 107.505096 106.761116 105.458525 104.568374 103.175057 101.226422 99.260257 96.772386 94.748369 93.319795 92.057661 90.947579 89.583583 88.293579 87.014534 85.729914 84.446409 83.233222 81.948425 80.799239 79.674371 78.687344 77.502531 76.423323 75.638465 74.661367 74.185023 73.942484 73.735440 72.797730 71.498344 71.500761 71.266021 68.538444 65.412193 64.978641 62.676636 62.221636 58.322681 57.730244 56.262406 54.655157 52.795289 51.844114 50.673661 49.023970 47.745369 46.624105 44.661042 43.727537 41.337317 38.878313 35.335991 31.020049 28.102150 26.047671 23.987862 21.270411 19.798180 18.832652 18.917292 18.352342 17.934125 18.561555 20.583392 19.522331 19.150081 20.281920 20.367929 19.661564 18.554457 17.357355 16.175244 14.839331 13.530808 12.035168 10.301467 8.461174 4.985495 -0.654101 -99.000000 -99.000000 -99.000000 -99.000000 -99.000000 -99.000000 -99.000000 -99.000000 -99.000000 -99.000000 -99.000000 -99.000000 -99.000000 -99.000000 -99.000000 -99.000000 -99.000000 -99.000000 -99.000000 -99.000000 -99.000000 -99.000000 -99.000000 -99.000000 -2.760137 -2.766261 -99.000000 -99.000000 -99.000000 -99.000000 -99.000000 -99.000000 -99.000000 -99.000000 -99.000000 -99.000000 -99.000000 -99.000000 -99.000000 -99.000000 -99.000000
147.869869 146.738132 146.124610 145.314320 146.467285 146.307753 142.930497 145.096321 144.866428 146.567474 147.931208 148.245243 147.860276 146.715660 145.655125 143.781478 141.062300 138.597805 138.258875 138.137502 139.119082 140.568824 140.916409 140.091252 139.889986 140.215026 140.344822 140.252532 140.270309 140.625601 140.204818 137.474838 134.566270 133.705516 133.564948 133.804483 133.889967 133.973163 133.877394 133.700019 133.270475 134.279590 135.246289 134.295721 133.153953 133.322977 133.618082 134.189732 133.164826 132.057094 131.919261 131.522510 131.519773 129.735155 128.151319 127.815800 131.242822 133.632012 132.441825 132.300926 134.459576 134.139047 132.602530 131.574685 134.219783 133.602677 134.358141 133.945361 132.998587 131.052426 132.227071 129.608529 134.288713 134.310712 132.078584 129.606563 128.117750 129.701573 128.785034 127.229326 125.734488 124.677357 124.192622 124.295122 125.413802 122.007217 120.173179 119.086117 117.470716 117.491291 117.816648 119.644985 121.810124 117.922090 114.106250 111.494926 111.010845 110.654323 110.293481 109.983301 109.762922 109.605234 109.370492 109.132889 108.620448 107.996271 107.135612 105.872138 104.884124 104.112939 102.472513 100.505993 98.307680 96.288624 94.558163 93.169531 92.109951 90.768361 89.635971 88.394706 87.167204 85.881711 84.741228 83.620293 82.224034 81.001242 79.762351 78.755111 77.900752 77.016469 76.196073 75.409144 74.890852 74.653385 74.232998 73.424371 73.490984 72.679697 71.184385 70.330610 70.242647 69.123398 67.234276 64.501199 62.763907 60.347621 58.356924 53.911878 54.522472 53.285828 50.064179 50.313180 48.574799 47.334142 46.505129 44.553536 42.518095 39.504096 37.021699 31.724546 29.693312 29.665298 27.954178 26.842806 27.041129 27.155614 27.077489 26.436675 25.728563 24.620645 22.086082 18.521770 18.427016 18.209183 20.194018 19.028119 17.885171 16.680886 15.416874 14.092844 12.706659 11.210755 9.269115 6.144276 0.627418 -2.941825 -99.000000 -99.000000 -99.000000 -99.000000 -99.000000 -99.000000 -99.000000 -99.000000 -99.000000 -99.000000 -99.000000 -99.000000 -99.000000 -99.000000 -99.000000 -99.000000 -99.000000 -99.000000 -99.000000 -99.000000 -99.000000 -2.784464 -2.476264 -2.755387 -99.000000 -99.000000 -99.000000 -99.000000 -99.000000 -99.000000 -99.000000 -99.000000 -99.000000 -99.000000 -99.000000 -99.000000 -99.000000 -99.000000 -99.000000 -99.000000
149.152759 146.971199 144.783873 147.119102 148.109290 146.728025 146.385891 144.622569 145.172130 146.291670 146.051215 146.862178 147.835986 147.811898 146.618775 144.416523 141.912546 139.384521 138.185075 137.651864 138.258465 139.743357 141.724759 141.859253 141.269499 140.561990 140.230763 140.165952 139.621999 139.459652 138.949938 137.159811 135.043284 134.980480 134.353010 133.816349 133.681420 133.654153 133.264311 133.096774 133.005270 133.774395 134.173928 133.102945 133.057079 133.080082 133.118569 133.915637 133.954402 131.737335 131.538290 131.283266 131.493727 129.800874 127.905346 128.008102 129.382646 133.136709 132.303249 133.153506 133.422577 134.443927 132.870860 130.477423 132.294851 132.043293 134.382726 134.474135 133.625546 131.550200 131.273524 129.936746 134.838934 134.456822 133.567598 131.163712 128.550036 130.176719 129.218949 129.366905 128.622969 125.478966 125.068701 125.117537 125.854835 124.154607 122.064693 120.499090 119.611647 119.052840 118.268857 120.547471 121.606480 119.499063 115.415151 112.673933 112.180977 111.767665 111.313930 110.990501 110.710712 110.385936 110.075674 109.737092 109.154535 108.496236 107.635663 106.444221 105.470579 104.757365 103.404720 101.533139 99.545417 97.539180 95.815301 94.334927 93.170093 91.721911 90.500391 89.353510 88.139634 86.973288 85.907603 84.658508 83.394481 82.134614 80.783223 79.664144 78.608827 77.777357 77.067003 76.526626 75.967011 75.632392 75.334621 74.824093 74.677311 73.592777 72.136234 71.254559 69.906255 68.710620 67.340486 65.713550 63.846580 62.160836 60.414191 58.225897 58.445945 56.832308 54.362352 54.275891 52.522463 51.850175 50.119503 48.257678 47.473876 45.984402 44.222085 42.612474 41.207558 39.510274 38.238881 36.680716 35.207725 34.139155 32.672519 31.183500 27.202384 23.762996 19.815108 18.125599 17.073766 18.005712 19.051578 19.505222 18.379080 17.223332 15.953754 14.628899 13.252262 11.609785 10.152871 7.427967 2.433986 -2.207411 -4.372490 -99.000000 -99.000000 -99.000000 -99.000000 -99.000000 -99.000000 -99.000000 -99.000000 -99.000000 -99.000000 -99.000000 -99.000000 -99.000000 -99.000000 -99.000000 -99.000000 -99.000000 -99.000000 -99.000000 -2.770000 -2.552201 -99.000000 -99.000000 -99.000000 -99.000000 -99.000000 -99.000000 -99.000000 -99.000000 -99.000000 -99.000000 -99.000000 -99.000000 -99.000000 -99.000000 -99.000000 -99.000000 -99.000000 -99.000000
146.563661 146.315948 144.428189 147.240678 150.659468 148.515128 147.504588 147.172141 147.525566 145.241839 145.831037 145.829467 145.763701 146.247449 146.288774 144.125838 142.600241 140.678562 138.134117 137.632341 137.582183 139.056944 140.750517 142.070084 142.826739 142.319513 141.359542 140.281896 139.347923 138.811337 136.956888 134.480202 135.166069 136.066081 136.481019 135.857622 134.240402 133.474788 132.701498 133.001388 132.817286 133.519631 133.458583 132.542383 132.968494 132.762329 132.749961 133.502253 134.324381 131.683140 130.964945 130.504815 130.299079 130.061642 129.064073 127.575270 127.343446 132.281116 131.310156 129.210576 128.982491 130.744578 131.292203 129.093106 127.647969 128.395217 131.090473 133.308578 133.950271 132.267517 130.374986 130.878336 132.603535 134.091761 134.765528 133.171469 131.231198 129.354029 127.912022 128.918473 129.366422 126.794642 123.216184 124.096068 125.059406 125.954126 124.224886 122.346000 121.092015 119.188019 118.240616 119.612245 121.368739 122.031696 117.139816 113.899799 113.382053 112.929298 112.534910 112.030612 111.660895 111.293167 110.858792 110.460781 109.796876 109.078587 108.249149 107.226572 106.306384 105.536955 104.228254 102.598711 100.820518 99.017337 97.320014 95.907096 94.602221 93.031903 91.760657 90.391615 89.178254 88.016094 86.957053 85.810678 84.552062 83.337523 81.958655 80.941558 79.764860 78.805027 77.856172 77.384581 77.312402 76.994814 76.640020 75.837155 75.554013 74.325602 72.631350 70.751647 69.572313 68.437311 66.856764 65.656397 64.032057 62.579285 61.123584 59.674285 58.563653 57.194578 56.239507 55.366820 53.761591 52.853157 51.208880 49.875910 48.915742 47.882011 46.873410 45.344149 43.402936 41.530044 40.179797 37.953835 35.529158 32.908319 29.450908 27.296791 25.530135 24.005276 21.837685 20.558395 19.557346 19.771609 19.197522 19.818326 18.848062 17.827777 16.643747 15.354856 14.075344 12.627934 10.961641 8.842386 5.077891 0.052211 -2.816200 -99.000000 -99.000000 -99.000000 -99.000000 -99.000000 -99.000000 -99.000000 -99.000000 -99.000000 -99.000000 -99.000000 -99.000000 -99.000000 -99.000000 -99.000000 -99.000000 -99.000000 -99.000000 -99.000000 -2.346607 -2.754188 -99.000000 -99.000000 -99.000000 -99.000000 -99.000000 -99.000000 -99.000000 -99.000000 -99.000000 -99.000000 -99.000000 -99.000000 -99.000000 -99.000000 -99.000000 -99.000000 -99.000000 -99.000000
145.249602 144.876702 145.045122 147.255657 150.135013 149.886635 149.597864 149.320469 148.999234 148.134896 148.012910 146.278266 144.850796 143.931728 142.504882 140.646877 142.559368 142.014786 138.975394 137.684987 137.750187 139.848772 140.890360 141.667107 142.289579 143.094118 142.943381 141.739160 140.198560 138.944552 135.968524 134.881818 135.436880 136.163847 137.846767 138.365053 137.524447 134.992279 132.843234 132.799182 132.352713 132.333660 132.752149 132.259778 132.426022 132.528508 132.687600 132.634494 133.139218 132.264378 130.391493 129.459845 129.054550 130.312917 130.029750 127.407481 125.829587 129.848969 130.668543 127.792771 126.162930 126.813847 128.182200 128.030488 126.677036 126.517327 128.524603 131.253974 132.084040 131.849401 129.863823 128.710206 129.626512 131.753819 133.951317 134.105987 132.109807 129.219335 127.655726 127.376047 129.430889 128.613899 125.160560 124.055379 124.517065 125.841602 126.150387 124.064288 122.388903 121.592128 120.065045 119.312195 121.103597 122.610685 119.475259 114.956491 114.390296 113.889440 113.374173 112.970062 112.492050 112.011839 111.480039 111.119545 110.482401 109.737513 108.870390 107.907808 107.099586 106.190932 105.048646 103.587509 102.048029 100.358998 98.662999 97.119987 95.954097 94.468967 93.033686 91.753247 90.408937 89.142753 87.993529 86.789468 85.582599 84.372044 83.114296 82.064947 81.048277 80.000167 78.967777 78.179246 78.153044 78.245072 77.667218 76.855930 76.903077 75.248785 73.073257 71.254040 70.241958 69.004720 67.434841 65.628708 63.922880 62.536718 61.393959 60.122927 58.767426 57.774776 57.093875 55.399182 53.742903 53.112968 51.214050 49.438724 47.561374 45.673366 44.298283 42.610208 41.466799 39.905918 39.337153 37.760490 36.498139 34.287513 32.104386 29.633173 28.056841 27.107202 25.528216 25.301923 24.194710 22.470999 19.802266 18.641090 19.008626 18.760470 17.503430 16.376800 14.976702 13.676545 12.248069 9.907611 7.171221 3.001005 -1.778373 -5.085439 -99.000000 -99.000000 -99.000000 -99.000000 -99.000000 -99.000000 -99.000000 -99.000000 -99.000000 -99.000000 -99.000000 -99.000000 -99.000000 -99.000000 -99.000000 -99.000000 -99.000000 2.061695 0.375269 -99.000000 -99.000000 -99.000000 -99.000000 -99.000000 -99.000000 -99.000000 -99.000000 -99.000000 -99.000000 -99.000000 -99.000000 -99.000000 -99.000000 -99.000000 -99.000000 -99.000000 -99.000000 -99.000000
146.363985 146.124302 147.072220 147.599007 147.230456 147.695627 150.137837 151.119666 150.883157 150.019568 149.350075 148.783707 146.534969 141.896829 139.822871 138.820561 141.816989 142.337164 140.087943 139.244436 139.985096 141.505505 142.049785 142.184507 142.327957 142.307289 142.349823 142.938835 141.608229 140.246237 136.823350 135.741102 136.659150 136.802331 137.512301 137.988895 138.823698 137.185089 135.795549 133.658551 131.182185 130.257537 131.795850 131.705940 131.551406 131.909067 132.122549 131.650058 132.065888 131.368023 129.460898 128.482470 128.659017 128.758607 129.148270 127.124182 124.660646 126.666337 129.140364 125.595940 122.277566 122.642754 124.373388 126.344803 127.198716 126.840883 126.991331 128.672309 129.576900 130.309268 128.643220 127.818739 127.153323 128.835001 131.954994 133.717122 132.170552 128.637677 127.338700 126.626415 127.525011 128.473067 125.860173 124.365619 124.304153 125.221478 126.626222 125.568429 124.135249 122.844395 122.143887 119.432058 120.645394 122.378787 124.310489 116.118917 115.554601 115.034222 114.498468 113.959670 113.389820 112.870765 112.326644 111.833688 111.105853 110.368750 109.564815 108.614403 107.739469 106.875631 105.801542 104.632166 103.281636 101.870058 99.922129 98.164311 97.048887 95.649557 94.338461 93.172679 91.886166 90.593622 89.332016 88.070444 86.765981 85.467558 84.202392 83.149470 82.161767 81.134735 80.253969 79.542436 79.040294 78.702442 79.040396 78.630130 77.955456 76.320587 74.487640 73.627293 72.055115 70.193490 68.407110 65.989642 64.345328 62.509823 60.989223 59.729679 58.747969 57.689864 56.664685 55.780966 54.715706 54.381452 53.073939 51.799517 50.372681 48.917447 47.150075 45.489312 43.800012 42.505134 40.576256 38.923416 37.091663 35.389971 33.846523 33.069374 32.227757 29.724227 26.508992 25.266106 25.090814 25.108464 25.131761 23.366774 21.703727 20.436432 18.255769 16.854590 15.695333 14.482213 12.981157 11.543413 8.857640 5.478412 0.914697 -2.664647 -99.000000 -99.000000 -99.000000 -99.000000 -99.000000 -99.000000 -99.000000 -99.000000 -99.000000 -99.000000 -99.000000 -99.000000 -99.000000 -99.000000 -99.000000 -99.000000 -99.000000 8.533709 2.295742 -99.000000 -99.000000 -99.000000 -99.000000 -99.000000 -99.000000 -99.000000 -99.000000 -99.000000 -99.000000 -99.000000 -99.000000 -99.000000 -99.000000 -99.000000 -99.000000 -99.000000 -99.000000 -99.000000
147.897038 147.860614 149.494730 149.377205 148.650522 150.033993 151.045398 151.754751 152.798438 152.701268 151.884894 150.727305 148.397557 143.281355 141.794962 141.151268 142.299644 141.933094 139.409158 140.530479 142.908139 144.667829 143.793181 143.074808 142.320144 141.709647 141.297465 141.455901 141.760738 141.840497 138.516225 137.420208 137.495055 136.791937 137.604410 137.398406 137.485631 137.349106 137.140186 134.911960 131.610888 130.070958 130.790598 130.171095 130.481173 131.640295 132.138892 132.073430 131.331913 128.264568 125.700342 123.266857 122.171470 121.939857 123.802611 123.513529 122.086429 122.506394 125.386311 123.675041 121.584894 120.932158 122.490341 126.523055 129.590701 129.354406 128.032921 126.999571 126.794992 128.884001 130.140544 129.917832 128.626710 128.576965 130.608447 132.726323 132.464962 130.150670 128.710299 127.459999 126.816464 127.291293 127.862207 125.989734 124.661238 124.788349 126.182710 127.047038 126.248934 124.805498 123.813682 122.334035 121.016657 122.107730 124.125461 118.789429 116.480560 115.964364 115.375592 114.817272 114.209528 113.628918 113.059863 112.511316 111.786297 111.047655 110.236062 109.314564 108.410716 107.536389 106.522788 105.325283 104.166420 102.662816 100.806913 99.215262 98.034876 96.585506 95.272079 94.057338 92.816124 91.666085 90.489893 89.274831 88.014539 86.782651 85.321432 84.243917 83.097187 82.159566 81.196611 80.510411 79.982636 79.480956 78.990271 78.907819 78.161334 76.975710 75.680386 74.286010 72.747043 71.021457 69.079509 66.908907 64.872668 62.993247 61.231766 59.691368 58.566217 57.497589 56.307281 55.111184 54.096654 53.334619 52.545411 51.610942 50.638379 49.675640 48.364935 46.911487 45.176073 43.690722 42.000337 40.443944 39.366182 38.382475 36.647624 35.390313 34.047238 32.863272 31.242528 30.157869 29.362649 28.306128 26.827462 25.168009 24.145492 22.866202 20.676091 17.462594 16.296170 15.087562 14.070284 12.926362 10.515074 6.222483 2.715526 -0.444937 -5.406566 -99.000000 -99.000000 -99.000000 -99.000000 -99.000000 -99.000000 -99.000000 -99.000000 -99.000000 -99.000000 -99.000000 -99.000000 -99.000000 -99.000000 -99.000000 -0.152116 6.071985 0.663033 -99.000000 -99.000000 -99.000000 -99.000000 -99.000000 -99.000000 -99.000000 -99.000000 -99.000000 -99.000000 -99.000000 -99.000000 -99.000000 -99.000000 -99.000000 -99.000000 -99.000000 -99.000000 -99.000000
150.978614 151.799924 153.604651 153.132857 152.763405 154.332403 155.025783 155.159889 155.404651 155.657094 154.989513 153.626992 150.480607 145.974223 143.717663 143.961074 144.604536 143.104476 140.954170 141.870041 143.726788 145.976730 145.828320 144.813600 143.321851 141.580076 140.306957 140.415596 140.495970 140.870654 139.850937 139.128048 138.194339 137.116977 136.407169 136.578238 136.705335 135.746756 135.068709 133.483336 132.832151 131.452418 130.753504 128.648698 128.355783 129.072665 128.513111 128.551936 127.126455 124.355974 121.764099 118.233502 116.193488 113.854970 116.689025 119.073457 121.614251 121.129749 124.006839 124.257146 123.291384 123.889510 124.752264 128.682338 131.744718 132.312819 130.332751 127.347473 127.311815 129.618800 132.260276 132.792228 131.135910 129.596868 130.098251 131.858546 133.006026 131.620201 130.722303 128.639531 126.017283 126.107643 128.899542 127.763285 125.713758 124.863634 126.143581 127.826873 128.050027 126.816827 125.541841 124.572845 122.546068 122.169653 123.464113 121.889791 117.692724 116.913937 116.262373 115.696178 115.029983 114.410927 113.766407 113.275015 112.519688 111.687630 110.907106 109.981099 109.099611 108.188804 107.186789 106.023963 104.902984 103.468579 101.938601 100.368128 99.198167 97.661479 96.228813 94.957440 93.693864 92.492659 91.400904 90.192720 89.176778 87.906759 86.577337 85.404248 84.309486 83.233601 82.301149 81.440308 80.807830 80.277122 79.732483 79.263519 78.582394 77.660720 76.420540 74.984895 73.223308 71.640369 69.919339 67.871477 65.629936 63.581587 61.619854 60.048548 58.698781 57.388739 56.175800 55.067431 54.155257 53.277706 52.441887 51.641873 50.746295 49.657969 48.499889 47.223915 46.034866 45.116550 43.910322 42.332214 41.263171 39.790401 38.705223 37.296964 36.097964 34.058899 34.006408 32.489461 31.350903 29.886301 28.611279 26.867840 24.520068 22.098670 20.258416 18.068639 16.673867 15.612025 14.512399 13.409855 11.421565 7.784730 3.927901 1.002735 -2.461831 -99.000000 -99.000000 -99.000000 -99.000000 -99.000000 -99.000000 -99.000000 -99.000000 -99.000000 -99.000000 -99.000000 -99.000000 -99.000000 -99.000000 -99.000000 -99.000000 -0.752707 -1.381742 -99.000000 -99.000000 -99.000000 -99.000000 -99.000000 -99.000000 -99.000000 -99.000000 -99.000000 -99.000000 -99.000000 -99.000000 -99.000000 -99.000000 -99.000000 -99.000000 -99.000000 -99.000000 -99.000000
152.597279 153.574518 155.322689 155.885106 155.304759 155.793685 156.446014 156.876797 157.130097 157.273084 156.898152 154.927362 153.332776 149.532720 147.114922 146.010224 146.384389 147.315578 144.311764 143.600995 143.996172 145.101410 146.089362 146.438614 145.219322 141.733799 139.454350 139.463588 139.200698 140.200000 139.512762 139.035682 139.249046 137.317226 134.693757 135.060625 134.866078 133.715395 131.962542 130.327370 131.014194 130.938809 131.803550 130.391705 128.649335 127.322006 125.733154 125.698448 124.591284 122.953154 121.427247 119.411569 117.924119 116.052467 115.398950 118.003890 121.766231 123.540437 125.961036 126.764925 126.942383 129.596436 129.449777 130.356694 133.132480 134.806652 133.275993 130.485464 129.423545 130.821691 133.405805 135.042117 133.811702 131.447898 130.320957 131.493965 132.633958 132.474190 132.313393 130.026807 126.202582 126.117416 128.542784 129.602688 127.673399 126.211558 126.842787 128.132719 129.212273 128.703624 127.384280 126.284725 125.212075 122.419408 122.976225 121.830822 119.773662 117.858053 117.218619 116.559312 115.926163 115.252204 114.579627 113.966292 113.197231 112.457797 111.641694 110.707733 109.791065 108.950061 107.940437 106.896191 105.713075 104.378670 103.019491 101.763326 100.561371 99.046466 97.555714 96.092099 94.736470 93.554681 92.373455 91.356785 90.171562 88.996880 87.809615 86.827495 85.842391 84.803202 83.678175 82.797953 81.885155 81.076444 80.414210 79.878112 79.161063 78.333757 77.128542 75.664512 74.049232 72.666155 70.813266 68.893094 66.629595 64.449893 62.455812 60.572638 59.046569 57.505320 56.222248 55.182734 54.198855 53.228313 52.272048 51.316290 50.230447 49.250938 48.362904 47.544553 46.639805 45.667290 44.575067 43.694291 42.517079 41.307861 40.572838 39.076752 37.561990 36.125821 34.516616 33.312431 31.631069 29.701763 28.435316 25.866404 24.495713 22.411960 19.865084 17.622956 17.382590 16.058055 14.930396 13.738681 11.772155 8.734976 5.560459 2.679749 0.971805 -4.058582 -99.000000 -99.000000 -99.000000 -99.000000 -99.000000 -99.000000 -99.000000 -99.000000 -99.000000 -99.000000 -99.000000 -99.000000 -99.000000 -99.000000 -99.000000 -2.511838 -2.460258 -99.000000 -99.000000 -99.000000 -99.000000 -99.000000 -99.000000 -99.000000 -99.000000 -99.000000 -99.000000 -99.000000 -99.000000 -99.000000 -99.000000 -99.000000 -99.000000 -99.000000 -99.000000 -99.000000
151.633618 152.610805 153.676146 154.283830 153.926896 153.561470 154.211418 154.433377 154.581322 154.614674 154.292746 153.466330 153.371132 151.383611 148.217890 147.132722 146.644768 146.441920 145.335011 147.223504 145.240093 145.099831 145.366539 145.618140 145.738963 143.132061 141.268944 140.748644 140.391025 140.613297 139.467576 138.158328 137.095218 135.564991 135.036983 135.715069 134.591438 132.231437 130.059277 128.840801 129.875276 130.564401 132.065032 132.771558 131.380126 129.235511 127.574826 127.000010 126.755461 125.305593 123.727028 122.372226 121.356218 120.146240 118.941169 118.528194 121.553306 125.316859 127.834397 129.133519 129.938236 132.900124 132.241269 131.533600 133.678049 135.490308 136.041239 133.673965 131.985466 131.673831 133.141500 134.832398 135.746415 133.584818 131.749667 131.381576 132.080186 132.579537 133.018956 131.449084 128.292436 127.970202 128.456821 130.458506 130.352132 128.667904 128.016162 128.469791 129.450117 130.093655 128.889144 127.626624 126.445334 124.901913 122.957732 122.403001 122.588682 119.468325 118.036153 117.358090 116.655961 115.976362 115.239788 114.681207 113.877777 113.070184 112.296305 111.344838 110.461146 109.618081 108.655444 107.605557 106.442679 105.175975 103.929292 102.628105 101.507468 100.006907 98.485836 96.940699 95.597777 94.292862 93.101107 92.097272 90.852849 89.761847 88.541591 87.513789 86.715317 85.736777 84.790146 83.979993 83.006454 82.071320 81.195135 80.508757 79.537825 78.629923 77.588961 76.235557 74.686911 73.243319 71.644475 69.601942 67.409091 65.293119 63.246069 61.229065 59.415954 57.861320 56.490889 55.257137 54.250590 53.088811 52.224832 50.949104 50.063124 48.996073 48.082657 47.429544 46.727669 46.193123 45.686330 44.760466 44.178524 43.358062 42.237669 40.441172 38.083682 35.886438 35.121101 33.615197 32.016359 30.269643 28.611705 27.659561 25.758530 21.054562 18.992783 17.931331 18.032712 16.260507 15.028608 13.958297 12.522705 10.673805 7.371388 3.751490 2.738535 -0.095161 -7.644570 -99.000000 -99.000000 -99.000000 -99.000000 -99.000000 -99.000000 -99.000000 -99.000000 -99.000000 -99.000000 -99.000000 -99.000000 -99.000000 -99.000000 -99.000000 -2.712353 -99.000000 -99.000000 -99.000000 -99.000000 -99.000000 -99.000000 -99.000000 -99.000000 -99.000000 -99.000000 -99.000000 -99.000000 -99.000000 -99.000000 -99.000000 -99.000000 -99.000000 -99.000000 -99.000000
152.735128 153.052666 153.627247 154.138199 154.264268 153.209427 154.099782 154.181480 154.297224 154.216248 154.103509 153.796977 153.956044 152.650093 149.236315 148.883981 148.102836 147.080843 146.794973 146.528434 146.948176 146.246208 145.287316 145.072643 144.896286 142.943219 142.032979 143.289698 142.573462 141.880146 139.919178 137.515326 134.211367 132.549200 134.169399 137.174099 136.145858 131.596394 129.216390 128.347897 130.065200 130.946601 131.997217 132.625080 134.016820 132.903732 130.363103 129.251519 128.868448 127.723508 125.675026 124.303023 123.620358 122.559990 121.542368 120.427095 121.194474 124.554564 128.173939 130.090044 130.753591 134.593915 134.771003 133.491576 133.815527 135.417667 136.567669 135.988918 133.912463 132.406708 132.814872 134.338811 135.671205 135.751047 133.430593 131.129002 131.313442 131.757614 133.726425 132.803044 130.936625 130.310945 129.465714 130.812238 132.604864 131.372337 129.689993 129.466142 129.670195 130.705981 130.630100 129.841648 127.726822 126.684784 124.653231 123.497450 124.668903 122.835182 118.945193 118.257637 117.517308 116.825247 116.085025 115.445591 114.608589 113.866723 113.016386 112.089071 111.189824 110.343254 109.408187 108.373491 107.283594 106.050868 104.817262 103.542332 102.492088 101.033380 99.555728 98.075644 96.626570 95.281044 94.185151 92.928183 91.697009 90.573155 89.407912 88.450252 87.514689 86.633843 85.713449 84.946302 84.138103 83.318650 82.538352 81.704949 80.471266 79.210883 78.059771 76.729385 75.671894 73.694184 72.290232 70.471820 68.399464 66.327868 64.146610 62.008294 60.165692 58.347656 56.833784 55.584326 54.324508 53.154186 52.162886 51.198930 49.785275 48.589846 47.937805 47.336962 46.886448 46.363856 46.184624 45.867999 45.104822 43.279526 40.846052 39.175522 37.075859 35.090858 31.735757 27.611203 25.964068 24.131506 23.120416 22.390615 21.421465 18.418278 16.948241 17.066012 17.356349 16.443207 15.154839 14.136875 12.995101 11.909157 8.845687 5.744733 4.504714 2.919081 -1.049507 -99.000000 -99.000000 -99.000000 -99.000000 -99.000000 -99.000000 -99.000000 -99.000000 -99.000000 -99.000000 -99.000000 -99.000000 -99.000000 -99.000000 -99.000000 -2.171322 -2.513646 -99.000000 -99.000000 -99.000000 -99.000000 -99.000000 -99.000000 -99.000000 -99.000000 -99.000000 -99.000000 -99.000000 -99.000000 -99.000000 -99.000000 -99.000000 -99.000000 -99.000000 -99.000000
155.820190 156.137675 157.251730 157.467452 157.735941 156.894465 157.550755 157.573679 157.384307 157.030189 156.234686 155.286918 155.007832 154.339620 150.584643 148.993869 149.444909 150.205624 150.069142 148.504144 147.991601 147.633865 146.791754 145.223169 144.227356 141.994334 141.099689 142.303781 143.681760 143.613138 141.442725 136.864039 132.225496 131.040383 133.002778 134.881960 134.403490 131.900561 130.693826 129.697168 130.702233 131.922551 133.842267 135.102516 135.914269 134.670648 132.772227 131.589769 131.109426 130.108448 128.848385 128.067724 127.552314 126.765676 125.238942 123.359163 121.885618 122.683739 126.985575 130.731233 131.492773 133.923762 136.610072 135.530363 134.461722 135.288722 137.640392 138.107935 135.808503 133.788762 133.061035 133.899756 135.319257 137.019152 135.453903 132.646769 131.666412 131.685758 133.108791 133.954558 133.834839 132.975260 131.153416 131.512373 132.734160 133.193453 131.834791 130.322252 130.024843 130.549408 131.340574 131.229603 129.269006 127.654894 126.881156 123.978742 124.499065 125.306740 122.333693 119.067066 118.321057 117.529425 116.748764 116.194174 115.361813 114.530462 113.695241 112.809421 111.902347 111.065396 110.155646 109.152346 108.104892 106.943412 105.703754 104.469858 103.428917 101.967150 100.571711 99.126425 97.662998 96.311116 95.110739 93.951963 92.718758 91.468380 90.279249 89.260206 88.376989 87.541891 86.627064 85.795927 84.989421 84.226309 83.479856 82.743481 81.650171 80.447211 79.073024 77.803080 76.330502 74.742731 73.163950 71.214594 69.325990 67.197428 65.140904 63.000097 60.894677 59.050512 57.327390 55.866142 54.533395 53.423961 52.495344 50.680188 49.544287 48.744585 48.026304 47.415012 46.919597 46.397112 46.019885 45.952849 44.491025 42.591791 39.991935 37.006057 35.183067 34.904469 31.672143 28.478159 26.661226 25.407734 25.111946 24.444216 23.223771 22.553457 20.640610 18.933227 18.465223 16.388369 15.346297 14.377735 13.224175 12.077909 10.915334 6.686021 5.624313 4.317155 1.404106 -5.555431 -99.000000 -99.000000 -99.000000 -99.000000 -99.000000 -99.000000 -99.000000 -99.000000 -99.000000 -99.000000 -99.000000 -99.000000 -99.000000 -99.000000 -2.124078 -2.013202 -99.000000 -99.000000 -99.000000 -99.000000 -99.000000 -99.000000 -99.000000 -99.000000 -99.000000 -99.000000 -99.000000 -99.000000 -99.000000 -99.000000 -99.000000 -99.000000 -99.000000 -99.000000
155.318655 155.536003 156.894001 157.136465 157.142203 156.706182 156.575054 156.859551 156.322225 155.494280 155.429038 154.501876 154.902660 153.366596 151.347014 149.346583 149.174654 149.710353 151.111354 151.417667 150.329430 149.113792 147.638524 146.326713 144.892169 141.480867 140.039373 140.450927 141.751650 142.755372 142.309643 137.589305 132.803101 131.514131 131.897510 133.268720 132.287820 130.369904 131.930374 133.381723 134.968632 135.833966 136.215206 136.721118 136.944924 136.027710 134.879526 133.580401 133.449965 133.117188 132.551654 132.009699 131.469787 130.696117 129.745377 127.573640 124.364107 122.215011 124.688687 130.347081 132.281820 133.253090 136.034154 137.424850 135.870527 135.355615 136.910478 138.110305 137.428216 135.582830 134.435939 133.694001 134.934792 136.639638 136.645704 134.395887 132.742243 132.043709 132.901880 134.008998 135.141096 135.384506 133.578168 132.235447 132.866599 133.912782 133.360219 131.772770 130.767331 130.569639 131.288898 131.465625 130.893919 129.021342 127.693091 126.401265 124.581236 125.183703 126.522842 121.174690 119.106487 118.238677 117.496383 116.856949 116.034371 115.197889 114.380741 113.467976 112.608917 111.798921 110.887201 109.954594 108.880510 107.732570 106.556671 105.387507 104.315330 102.922726 101.590336 100.211621 98.725556 97.393166 96.120175 94.882709 93.670250 92.463606 91.157485 90.039061 89.021098 88.130032 87.288538 86.477249 85.713362 84.892352 84.154811 83.482761 82.384282 81.201432 79.949263 78.611041 77.153137 75.538996 73.884343 72.106242 70.217199 68.094996 66.062693 63.817170 61.720748 59.810607 57.948130 56.431836 55.001581 53.635802 52.244073 50.993166 49.932847 48.965081 48.110132 47.417730 46.906640 46.380349 45.811056 45.461935 44.612547 43.043599 40.474351 38.387516 37.047949 36.082862 34.905650 33.031590 31.529823 30.673659 29.051485 27.748795 26.478809 25.315583 24.106908 21.839118 19.547952 17.431913 15.771044 14.591804 13.438081 12.394834 11.284924 8.934838 5.950183 4.739501 2.914131 -2.122633 -99.000000 -99.000000 -99.000000 -99.000000 -99.000000 -99.000000 -99.000000 -99.000000 -99.000000 -99.000000 -99.000000 -99.000000 -99.000000 -99.000000 -1.623750 -2.255572 -99.000000 -99.000000 -99.000000 -99.000000 -99.000000 -99.000000 -99.000000 -99.000000 -99.000000 -99.000000 -99.000000 -99.000000 -99.000000 -99.000000 -99.000000 -99.000000 -99.000000 -99.000000
158.262326 157.753498 158.533525 158.811701 158.928266 158.349522 157.000510 157.555540 156.939706 156.853048 155.902877 155.651743 154.602653 153.370981 151.799477 150.111027 149.521943 149.200000 149.896073 150.786872 151.430390 151.320293 149.215989 146.734760 143.868620 140.193744 139.793766 139.542198 140.341798 140.681849 139.648819 137.083640 134.329701 133.035473 132.992299 133.845113 130.722085 129.668895 132.508616 136.229405 139.148245 140.245793 139.637399 138.593900 138.149986 137.391419 136.677933 136.242282 136.557709 137.035911 136.815799 136.245161 135.620537 134.864855 134.160315 133.155160 131.051744 126.193773 123.303512 127.517133 132.454881 133.655827 133.764142 137.313729 137.300930 136.154258 135.907730 137.214889 138.273771 137.344556 135.703416 134.433987 134.454605 135.674060 136.839087 136.481071 134.295408 132.492766 132.893633 134.072934 135.717736 137.277184 135.958509 133.919510 133.163264 132.959415 136.664097 134.317633 132.184326 131.370538 131.329782 131.644730 131.853684 130.589056 128.757412 127.554984 125.460689 124.913740 125.771452 127.466721 120.635482 119.313339 118.432686 117.872831 116.896311 116.095535 115.254109 114.341436 113.915299 113.417225 112.505768 111.520632 110.505190 109.370009 107.704463 106.996250 105.898428 104.164046 103.022297 102.368672 100.949303 99.572427 98.180883 97.090814 95.805540 93.708413 92.195695 91.047573 89.990315 89.034147 88.072652 87.181050 86.400828 85.637836 84.959328 84.067639 83.091329 81.857573 80.433294 79.165737 77.742126 76.224163 74.599520 72.954454 70.990135 69.029064 66.936321 64.745250 62.784619 60.677310 58.691735 57.024234 55.514496 54.131206 52.793318 51.466729 50.242505 49.212570 48.294043 47.546236 46.894590 46.285197 45.583971 44.934371 44.260142 43.301687 42.117387 41.072654 39.783372 39.180843 37.867657 35.901988 34.297694 33.146927 31.821307 31.313084 29.868313 27.981700 25.728287 22.804864 19.878355 18.202867 16.658038 15.771526 13.780161 12.767470 11.787773 10.840997 7.887793 5.995264 4.504827 1.048343 -4.898982 -99.000000 -99.000000 -99.000000 -99.000000 -99.000000 -99.000000 -99.000000 -99.000000 -99.000000 -99.000000 -99.000000 -99.000000 -2.780000 -1.978759 -2.780593 -99.000000 -99.000000 -99.000000 -99.000000 -99.000000 -99.000000 -99.000000 -99.000000 -99.000000 -99.000000 -99.000000 -99.000000 -99.000000 -99.000000 -99.000000 -99.000000 -99.000000 -99.000000
161.952620 161.165221 161.051859 161.309699 160.885841 159.638190 157.776244 158.160777 157.824867 157.364987 156.971967 157.630491 156.271132 155.098576 153.741566 151.463336 149.966553 149.078202 149.614091 149.561322 149.451527 150.184621 150.208623 148.398101 144.237568 140.629335 140.844875 140.906049 140.649979 139.436914 136.424163 135.553751 133.448376 133.239418 135.369991 135.966018 131.893905 131.320147 134.806147 137.630752 139.029373 140.671590 141.738743 141.041950 139.744997 138.095668 139.425557 138.930366 140.269749 141.045101 140.797492 140.028589 139.453151 138.641954 138.310680 138.232319 137.692904 136.092626 131.106741 128.308824 135.553513 135.457776 133.421134 136.789708 138.195777 137.598386 136.181394 136.849348 138.235349 138.870077 137.207659 135.910663 134.938769 135.245668 136.649485 137.399209 135.622916 133.664858 132.962891 134.461244 136.238694 137.859077 137.406462 135.957879 134.717808 135.328776 137.500967 137.019628 134.510884 133.071628 132.759091 132.690585 133.067985 132.379058 131.305070 129.976986 129.440596 127.800016 127.709626 127.802340 128.258138 124.302685 122.751066 122.114372 121.098233 120.272951 119.387039 118.496788 117.544653 116.678585 115.732134 114.668736 113.544080 112.380145 111.106026 109.818914 108.754707 107.380142 105.985770 104.487490 102.980920 101.556963 100.241243 98.841394 97.601995 96.202747 93.714779 91.835506 90.777895 89.820186 88.813115 87.952521 87.162178 86.392190 85.732625 84.921631 83.906435 82.421927 81.082186 79.771710 78.461150 77.009127 75.475161 73.705232 71.879676 69.933948 67.754392 65.744724 63.606231 61.685092 59.578860 57.735222 56.172841 54.635251 53.178549 51.805590 50.554868 49.441776 48.500640 47.703006 46.973207 46.208483 45.346488 44.572984 43.835754 43.176297 42.612808 42.073669 41.026534 40.151497 39.009396 37.929597 36.973065 36.052890 33.951346 32.491058 30.823176 28.384319 26.034727 23.560176 20.428690 18.533132 17.043190 15.591296 14.361390 13.303289 12.468615 11.573772 10.084914 7.627617 4.808582 3.952161 -1.467478 -99.000000 -99.000000 -99.000000 -99.000000 -99.000000 -99.000000 -99.000000 -99.000000 -99.000000 -99.000000 -99.000000 -2.753818 -2.431299 -2.805212 -99.000000 -99.000000 -99.000000 -99.000000 -99.000000 -99.000000 -99.000000 -99.000000 -99.000000 -99.000000 -99.000000 -99.000000 -99.000000 -99.000000 -99.000000 -99.000000 -99.000000 -99.000000 -99.000000
162.587332 161.983968 162.093551 161.735514 161.833128 159.510727 158.335363 157.583404 156.746064 156.408329 156.299579 156.644790 156.479057 155.664568 154.611059 152.668542 153.036030 152.008497 151.166629 151.139416 150.556420 149.516925 149.024993 148.512660 146.089804 144.045270 144.039710 143.734525 142.563804 142.899249 140.664710 137.344393 134.279807 133.932202 136.647082 138.562547 135.711175 136.422975 138.922083 139.758880 139.660469 141.181795 141.629731 141.826832 142.153514 140.697202 140.165148 140.766428 142.280056 141.964305 141.108410 140.378213 139.970294 139.426000 139.842862 140.272087 140.463381 140.659976 140.807325 139.677041 137.229879 138.211172 134.652786 137.441184 139.013720 139.215252 137.962013 137.215478 138.124655 139.032605 138.992618 138.431090 137.590698 136.131505 136.356136 136.523397 135.770860 134.267499 133.055092 133.508003 134.798134 136.045631 136.480059 136.531669 135.707346 134.555051 135.986335 136.824764 135.640681 133.947746 132.983958 132.851951 132.756944 132.716340 131.755334 130.399827 129.082465 127.915765 126.724285 126.389866 126.663766 125.723863 122.579415 121.630645 120.716983 119.910693 119.044589 118.111211 117.141124 116.301690 115.458499 114.488033 113.480149 112.365930 111.256266 110.051390 108.979927 107.629326 106.325832 104.866206 103.461844 101.950629 100.603528 99.239092 97.708935 95.561376 94.153405 92.897863 91.789251 90.780915 89.673828 88.840707 87.870915 87.152065 86.364000 85.464034 84.520666 83.229408 81.582445 80.228895 79.025038 77.518462 76.010541 74.337861 72.610041 70.611730 68.727823 66.703511 64.614604 62.557274 60.464731 58.631774 56.817433 55.144733 53.566660 52.234081 50.948541 49.781601 48.825024 47.937040 47.093087 46.209640 45.217318 44.368350 43.641015 43.103750 42.550611 41.968319 41.232436 40.446342 39.509382 38.663127 37.667538 36.490778 34.851885 33.118000 31.641354 29.426431 26.627233 23.439443 21.136950 18.768380 17.323861 15.950917 15.195209 13.789122 12.964749 11.996251 10.947655 9.839138 5.998511 4.681101 -2.699804 -99.000000 -99.000000 -99.000000 -99.000000 -99.000000 -99.000000 -99.000000 -3.277079 -3.612019 -99.000000 -2.593713 -2.130874 -2.848689 -99.000000 -99.000000 -99.000000 -99.000000 -99.000000 -99.000000 -99.000000 -99.000000 -99.000000 -99.000000 -99.000000 -99.000000 -99.000000 -99.000000 -99.000000 -99.000000 -99.000000 -99.000000 -99.000000 -99.000000
161.976169 160.322451 158.711856 159.377656 159.740925 160.151872 159.837947 158.967866 157.679486 156.378698 155.535056 155.311424 154.691543 153.753033 153.173339 151.583641 151.848141 152.324944 151.807011 150.861022 150.291838 149.769916 148.735907 147.500620 145.852133 145.597731 146.524949 145.881187 144.007804 140.249511 138.664031 140.323499 137.236941 135.047764 136.778062 137.889032 135.990969 138.036041 140.366141 140.722377 140.290740 139.544978 139.474568 139.818077 139.568793 137.690832 136.594855 137.286894 138.974826 139.211861 138.370813 138.846770 138.487231 138.506950 138.557245 138.652338 138.752338 138.769785 138.800402 138.884501 138.763658 138.752338 138.286419 138.467254 138.592349 137.880590 137.073420 136.071669 136.199554 137.155884 138.040692 137.369937 136.299384 135.148205 134.632175 134.088342 133.488086 131.988850 130.092095 130.307467 131.769946 132.993816 134.533320 134.647253 134.794032 133.592167 133.153070 134.394491 135.504436 133.880741 132.777339 132.517088 132.388181 132.457347 132.106395 130.719588 129.247720 128.257808 127.088433 125.504677 125.715527 125.570544 124.286636 121.001468 119.502419 118.689746 117.881684 117.042250 116.025557 115.294593 114.489056 113.664393 112.758683 111.612207 110.628149 109.571096 108.530156 107.309352 106.015059 104.679472 103.257323 101.969732 100.543735 99.294550 97.938595 96.555768 95.081776 93.791862 92.632711 90.824474 89.693383 88.885696 88.428049 87.802906 87.054015 86.197650 85.085582 83.613474 81.748918 80.613776 79.353021 78.086145 76.555767 74.988828 73.319382 71.470337 69.574185 67.553613 65.574325 63.500290 61.501792 59.488018 57.594723 55.871774 54.244975 52.776023 51.467896 50.315121 49.228809 48.183796 47.309194 46.314081 45.291157 44.395571 43.579249 42.894742 42.312560 41.661948 40.952995 40.420583 39.686986 38.819475 37.773816 36.518963 34.678714 33.073566 31.595002 29.579054 26.127081 22.030563 20.225989 19.703034 17.977986 16.863852 15.747514 15.232638 13.257678 12.408263 10.863128 9.829932 8.339723 5.950658 2.860271 -2.546361 -99.000000 -99.000000 -99.000000 -3.917326 -2.780000 -2.780000 -2.350720 -2.376088 -2.515828 -2.735917 -99.000000 -99.000000 -99.000000 -99.000000 -99.000000 -99.000000 -99.000000 -99.000000 -99.000000 -99.000000 -99.000000 -99.000000 -99.000000 -99.000000 -99.000000 -99.000000 -99.000000 -99.000000 -99.000000 -99.000000 -99.000000 -99.000000
160.878915 159.451249 158.560780 160.625855 159.974456 160.468386 162.057987 161.930594 160.429704 158.573482 156.879849 155.309577 154.326016 152.849156 151.073871 149.708536 149.455074 151.296767 152.054085 151.461829 150.523711 149.132976 147.980839 146.648046 145.184916 144.294843 145.589898 147.041396 145.626663 141.411807 139.957325 140.114811 137.895749 137.375101 138.596309 137.840705 135.552465 137.598515 140.003575 141.319101 140.996828 139.665869 138.728823 137.441238 136.221583 133.835466 133.801116 136.739859 138.390324 138.678412 137.982405 138.437997 137.692995 137.627810 137.918713 137.993565 138.094949 138.161524 138.212278 138.109889 138.005363 137.868416 137.796311 137.715244 137.511889 136.212278 135.881403 134.771963 133.876032 134.892515 136.600850 137.018805 135.376428 133.479167 131.898732 130.370541 129.170989 129.551262 128.341490 127.786163 128.645686 130.042491 131.950965 134.259277 134.529053 132.675311 130.812554 131.634640 133.704433 134.032065 132.395118 131.548987 131.825681 132.145960 132.587866 131.644153 129.649432 128.252002 127.089625 124.597353 124.630533 125.830517 125.108174 122.041926 119.517869 118.678435 117.857714 117.030854 116.291420 115.618090 114.899971 114.124876 113.290721 112.328801 111.318897 110.288013 109.419809 108.210454 106.972130 105.690144 104.288637 102.974960 101.709016 100.343384 98.913747 97.477950 96.022321 94.075457 92.177330 91.236579 90.487526 89.792971 89.029923 88.459217 87.589041 86.745475 85.323078 84.097833 81.980766 80.875352 79.717350 78.449363 77.056316 75.602509 73.880565 72.163938 70.312831 68.478730 66.525359 64.535818 62.503838 60.505092 58.617184 56.748145 55.078286 53.546681 52.154790 50.921656 49.740702 48.683649 47.643340 46.544484 45.448683 44.569335 43.733883 42.847181 42.083160 41.506971 40.867865 40.261067 39.598828 38.760659 37.682854 36.263312 34.362672 32.766562 31.296229 29.318008 24.956885 19.775682 17.834972 18.809490 18.106009 17.091062 15.868461 15.141896 13.698949 12.372283 10.988638 10.279719 10.118078 9.754754 4.711439 -1.537798 -3.086666 -2.790000 -2.790000 -2.675225 -3.028119 -3.271388 -99.000000 -99.000000 -99.000000 -99.000000 -99.000000 -99.000000 -99.000000 -99.000000 -99.000000 -99.000000 -99.000000 -99.000000 -99.000000 -99.000000 -99.000000 -99.000000 -99.000000 -99.000000 -99.000000 -99.000000 -99.000000 -99.000000 -99.000000 -99.000000 -99.000000 -99.000000
162.309293 161.587210 160.836715 162.325118 160.932130 161.506981 162.016557 163.339105 163.854326 162.129504 159.419786 156.653065 154.529620 151.289753 148.765656 148.346582 148.787565 150.405569 153.218118 153.688616 152.479391 150.474878 148.385775 146.618846 144.313158 143.564480 144.743858 146.707811 146.993789 144.259921 143.522101 142.034077 138.581309 137.835243 139.288290 136.869511 134.030118 135.646223 136.901318 137.955923 138.734407 138.118030 136.814242 134.482569 131.681938 130.264112 133.893429 136.606439 137.964811 138.220937 137.572364 137.952757 137.222670 137.236483 137.593514 137.593514 137.593514 137.572217 137.550920 137.309109 136.966152 136.619479 136.299762 135.944690 135.530437 136.032820 134.000091 133.257919 132.018720 131.264724 132.704986 133.928532 132.786094 131.373792 129.339343 126.622290 125.158811 125.908102 126.903788 127.115277 126.256658 127.362574 128.727556 131.141021 133.190963 132.126068 129.718087 128.647339 130.802217 133.202510 132.040149 130.710768 130.504639 131.198146 131.701839 131.649100 130.121020 128.658543 127.107037 125.149867 123.659245 124.526096 125.525837 124.009973 120.896437 119.368411 118.490369 117.750935 117.040204 116.438171 115.768937 115.035794 114.238053 113.328902 112.418998 111.426869 110.518471 109.332559 108.190944 106.861000 105.501375 104.124100 102.846573 101.454793 99.917609 97.533708 96.021236 94.486158 93.116455 92.051464 90.935702 90.320661 89.684353 89.061290 88.322839 87.366646 86.035170 84.346144 82.488458 80.984099 80.047477 78.744615 77.526058 76.070126 74.536109 72.822128 71.148194 69.348891 67.368536 65.567779 63.590624 61.615041 59.590724 57.690910 55.939636 54.412299 52.854180 51.536730 50.363760 49.178208 48.111983 47.012759 45.864309 44.891517 44.079013 43.150211 42.236706 41.500773 40.863130 40.164507 39.458361 38.693483 37.494411 35.729995 33.515724 31.995681 30.800583 28.984134 24.507678 17.172551 13.791306 16.604917 18.517057 17.140138 16.378085 15.461064 14.428931 13.291069 12.356333 10.968595 11.185354 10.827336 9.896673 1.657942 -99.000000 -99.000000 -99.000000 -99.000000 -99.000000 -99.000000 -99.000000 -99.000000 -99.000000 -99.000000 -99.000000 -99.000000 -99.000000 -99.000000 -99.000000 -99.000000 -99.000000 -99.000000 -99.000000 -99.000000 -99.000000 -99.000000 -99.000000 -99.000000 -99.000000 -99.000000 -99.000000 -99.000000 -99.000000 -99.000000 -99.000000 -99.000000
