38.742248 38.417894 38.150384 37.934148 37.717911 37.379904 36.931987 36.484069 36.021581 35.446975 34.875494 34.307334 33.690639 33.011039 32.331440 31.639269 30.944224 30.249179 29.769348 29.414103 29.058858 28.702451 28.559762 28.433109 28.279890 27.936233 27.611878 27.287524 26.711943 26.097215 25.496238 25.215944 24.984262 24.752581 24.581256 24.504029 24.426802 24.335348 24.143658 23.973759 23.803859 23.506924 23.290688 23.074451 22.805765 22.512301 22.218838 21.868620 21.467039 21.065457 20.704991 20.394391 20.054592 19.714792 19.727682 19.752395 19.749301 19.528376 19.222556 18.916736 18.705055 18.603115 18.501176 18.380259 18.204181 18.028103 17.878227 17.791671 17.698999 17.606326 17.571597 17.553062 17.534528 17.583022 17.617002 17.650982 17.631828 17.492819 17.353810 17.198650 17.158492 17.118334 17.082000 17.082829 17.030315 16.977800 16.910404 16.839355 16.768305 16.700577 16.638796 16.577014 16.478830 16.497365 16.515900 16.574119 16.708718 16.881707 17.054696 17.267904 17.487229 17.706554 17.919554 18.123434 18.327314 18.576161 18.781817 18.994964 19.208111 19.978778 20.788119 21.498194 21.019667 20.364781 19.709894 19.413130 19.329725 19.246319 19.106984 18.773363 18.439741 18.217646 18.357897 18.407323 18.456748 19.052302 19.830752 20.609202 20.954740 20.877512 20.800285 20.362163 20.290930 20.300197 20.306683 20.241812 20.176941 20.259606 20.360230 20.283002 20.205775 20.112156 19.976236 19.840316 19.700369 19.580238 19.462852 19.343275 19.205340 19.069420 18.933500 18.790903 18.642627 18.494351 18.344177 18.192812 18.041446 17.896721 17.727288 17.557388 17.390081 17.238716 17.087350 16.934023 16.792607 16.662865 16.533123 16.382824 16.222191 16.061559 15.904604 15.731615 15.558626 15.390360 15.242084 15.093807 14.939836 14.781110 14.626656 14.472202 14.315533 14.157990 14.000446 13.837344 13.633464 13.429584 13.235434 13.071713 12.907991 12.730095 12.534518 12.327549 12.120580 11.909303 11.668354 11.427405 11.191374 10.959693 10.728011 10.509737 10.211039 9.905220 9.598879 9.273884 8.943352 8.612819 8.224093 7.822511 7.420930 7.311421 7.515301 7.719181 7.732478 7.452348 7.177419 6.852031 6.107561 5.363091 4.651205 3.714562 2.732233 1.759518 0.997534 0.246886 -0.503762 -1.167874 -1.678979 -2.188679 -2.716022 -3.336929 -3.957835 -4.598479 -99.000000 -99.000000 -99.000000 -99.000000 -99.000000 -99.000000 -99.000000 -99.000000 -99.000000 -99.000000 -99.000000 -99.000000 -99.000000 -99.000000 -99.000000 -99.000000 -99.000000 -99.000000 -99.000000 -99.000000 -99.000000 -99.000000 -99.000000 -99.000000 -99.000000 -99.000000 -99.000000 -99.000000 -99.000000 -99.000000 -99.000000 -99.000000 -99.000000 -99.000000 -99.000000 -99.000000 -99.000000 -99.000000 -99.000000 -99.000000 -99.000000 -99.000000 -99.000000 -99.000000 -99.000000 -99.000000 -99.000000 -99.000000 -99.000000 -99.000000 -99.000000 -99.000000 -99.000000 -99.000000 -99.000000 -99.000000 -99.000000 -99.000000 -99.000000 -99.000000
38.989769 38.665415 38.376406 38.136665 37.920429 37.582422 37.134504 36.715921 36.273602 35.680995 35.109514 34.541354 34.034743 33.371070 32.691471 31.999299 31.304254 30.642574 30.163132 29.807886 29.445184 29.084983 28.787031 28.660378 28.507159 28.121023 27.794144 27.469790 26.894209 26.279481 25.912523 25.619060 25.355544 25.123862 24.952538 24.875311 24.807253 24.729131 24.476687 24.306787 24.136887 23.737696 23.475203 23.258967 22.990280 22.696817 22.298501 21.926901 21.635803 21.234222 20.873756 20.664414 20.324615 19.984815 19.997705 20.022418 19.879812 19.694952 19.436324 19.130504 18.917613 18.805633 18.703693 18.582776 18.406698 18.240129 18.123497 18.046270 17.955521 17.862848 17.828118 17.809584 17.822911 17.879299 17.941030 17.975010 17.955856 17.816847 17.665983 17.482174 17.442016 17.401858 17.376775 17.426663 17.410597 17.358083 17.289011 17.212886 17.141837 17.074109 17.012327 16.921143 16.771355 16.789890 16.812037 16.963402 17.057425 17.207985 17.380974 17.599913 17.831508 18.050833 18.263833 18.467713 18.708638 19.005947 19.189102 19.402249 19.615396 20.386063 21.195404 21.264174 20.785647 20.130761 19.668047 19.406768 19.262219 19.178814 19.039479 18.705857 18.408261 18.352657 18.620019 18.704348 18.753773 19.349327 20.127777 20.914323 21.260766 21.183538 20.877777 20.269905 19.780137 19.789404 19.795890 19.731019 19.666148 20.248355 20.384703 20.339257 20.262030 20.174366 20.061743 19.925824 19.785877 19.643243 19.525858 19.406280 19.264182 19.127925 18.992005 18.853455 18.707883 18.559606 18.409433 18.258067 18.117954 17.977728 17.817295 17.647395 17.480089 17.328723 17.177074 17.019531 16.867564 16.732621 16.602879 16.452580 16.291947 16.145439 15.992320 15.817122 15.644134 15.475867 15.327591 15.177814 15.014093 14.850371 14.694162 14.539707 14.383039 14.225496 14.058334 13.897194 13.730222 13.526342 13.332192 13.168471 12.999709 12.802101 12.622934 12.419807 12.212838 12.020101 11.798865 11.557916 11.321885 11.090204 10.877410 10.671751 10.415807 10.109987 9.803646 9.488559 9.159370 8.828838 8.440111 8.038530 7.769107 7.605502 7.625560 7.829440 7.842737 7.508603 7.233674 6.908285 6.163815 5.420890 4.790717 3.854074 2.871744 2.045292 1.283309 0.532660 -0.191342 -0.846097 -1.411207 -1.920906 -2.448249 -3.069156 -3.693861 -4.373460 -99.000000 -99.000000 -99.000000 -99.000000 -99.000000 -99.000000 -99.000000 -99.000000 -99.000000 -99.000000 -99.000000 -99.000000 -99.000000 -99.000000 -99.000000 -99.000000 -99.000000 -99.000000 -99.000000 -99.000000 -99.000000 -99.000000 -99.000000 -99.000000 -99.000000 -99.000000 -99.000000 -99.000000 -99.000000 -99.000000 -99.000000 -99.000000 -99.000000 -99.000000 -99.000000 -99.000000 -99.000000 -99.000000 -99.000000 -99.000000 -99.000000 -99.000000 -99.000000 -99.000000 -99.000000 -99.000000 -99.000000 -99.000000 -99.000000 -99.000000 -99.000000 -99.000000 -99.000000 -99.000000 -99.000000 -99.000000 -99.000000 -99.000000 -99.000000 -99.000000
39.237290 38.912936 38.623927 38.345909 38.122946 37.784939 37.347900 36.967942 36.525623 35.929430 35.343534 34.775373 34.268763 33.731100 33.051501 32.359329 31.685065 31.036357 30.556915 30.198407 29.827716 29.467516 29.127716 28.887648 28.734428 28.348292 27.976409 27.652055 27.076474 26.622272 26.328808 26.035345 25.741882 25.495143 25.323819 25.247372 25.201036 25.122914 24.869609 24.639815 24.469915 24.070724 23.659719 23.443483 23.174796 22.825136 22.352505 21.980906 21.736868 21.402986 21.042520 20.841729 20.594637 20.254838 20.267728 20.177134 20.010323 19.825463 19.633940 19.344273 19.131382 19.013996 18.906210 18.785294 18.609216 18.485400 18.368768 18.291541 18.212042 18.119370 18.084640 18.085383 18.113185 18.169573 18.249890 18.299037 18.279883 18.140874 17.949507 17.765698 17.725540 17.696262 17.671550 17.721438 17.786308 17.738365 17.669293 17.588977 17.515369 17.447641 17.385859 17.213667 17.063880 17.082415 17.201320 17.352685 17.446708 17.534262 17.707251 17.926190 18.170228 18.395113 18.608112 18.817159 19.138425 19.435734 19.617990 19.809533 20.022680 20.793347 21.101203 21.030154 20.551627 20.002507 19.665797 19.404517 19.231529 19.111308 18.971973 18.638351 18.543272 18.487669 18.755030 19.001373 19.050799 19.646352 20.429542 21.220349 21.566791 21.409515 20.785519 20.177647 19.612344 19.278611 19.285097 19.220226 19.616198 20.237104 20.373452 20.388898 20.318285 20.230621 20.134859 20.011331 19.871384 19.723108 19.588863 19.469285 19.327187 19.186430 19.050510 18.911960 18.772951 18.624862 18.474688 18.328703 18.198961 18.058735 17.901192 17.737403 17.570096 17.418731 17.262581 17.105038 16.953072 16.802377 16.672635 16.522336 16.369116 16.233197 16.080077 15.903999 15.729641 15.561374 15.413098 15.252070 15.088349 14.924627 14.761667 14.607213 14.450545 14.287577 14.114588 13.953449 13.805173 13.623101 13.428951 13.265229 13.071715 12.874107 12.694940 12.512065 12.305096 12.112359 11.923925 11.688427 11.452396 11.227858 11.039423 10.833764 10.586637 10.314754 10.008413 9.693326 9.375388 9.044856 8.656129 8.337212 8.117886 7.954282 7.830718 7.939699 7.952996 7.603930 7.289929 6.964540 6.220070 5.560402 4.930228 3.993586 3.112605 2.331066 1.569083 0.831658 0.130435 -0.524320 -1.108157 -1.653133 -2.180477 -2.801383 -3.468841 -4.148441 -4.486465 -99.000000 -99.000000 -99.000000 -99.000000 -99.000000 -99.000000 -99.000000 -99.000000 -99.000000 -99.000000 -99.000000 -99.000000 -99.000000 -99.000000 -99.000000 -99.000000 -99.000000 -99.000000 -99.000000 -99.000000 -99.000000 -99.000000 -99.000000 -99.000000 -99.000000 -99.000000 -99.000000 -99.000000 -99.000000 -99.000000 -99.000000 -99.000000 -99.000000 -99.000000 -99.000000 -99.000000 -99.000000 -99.000000 -99.000000 -99.000000 -99.000000 -99.000000 -99.000000 -99.000000 -99.000000 -99.000000 -99.000000 -99.000000 -99.000000 -99.000000 -99.000000 -99.000000 -99.000000 -99.000000 -99.000000 -99.000000 -99.000000 -99.000000 -99.000000
39.466273 39.160457 38.871448 38.593430 38.325463 37.987456 37.599922 37.219964 36.777645 36.181451 35.585257 35.009393 34.502783 33.996173 33.411532 32.727557 32.078849 31.430140 30.950698 30.580939 30.210248 29.850048 29.510248 29.170449 28.961697 28.575562 28.189426 27.834320 27.332020 27.038557 26.745093 26.451630 26.158167 25.866425 25.695101 25.641156 25.594819 25.516698 25.263393 25.010087 24.802943 24.403752 23.983636 23.627998 23.351771 22.879140 22.406510 22.034910 21.790873 21.546835 21.211284 21.010494 20.809703 20.524861 20.474455 20.307645 20.140834 19.955974 19.764451 19.558041 19.345150 19.227764 19.110379 18.987811 18.848056 18.730671 18.614039 18.536812 18.459585 18.375891 18.347856 18.375658 18.403460 18.459848 18.540164 18.620480 18.603911 18.427643 18.233031 18.049222 18.015750 17.991037 17.966325 18.016212 18.081083 18.118647 18.049575 17.969259 17.888943 17.821172 17.679181 17.506192 17.356405 17.439237 17.590603 17.741968 17.835991 17.922486 18.033529 18.252468 18.496506 18.739392 18.952391 19.246946 19.568211 19.865520 20.047776 20.230032 20.429965 20.938232 20.867183 20.796134 20.336968 20.000257 19.663547 19.402267 19.229278 19.056289 18.904467 18.733887 18.678284 18.622680 18.890042 19.161881 19.347824 19.944762 20.735568 21.526374 21.872817 21.317257 20.693261 20.085389 19.520086 18.954783 18.774303 18.984040 19.604947 20.225854 20.362201 20.377647 20.374540 20.286875 20.191114 20.095352 19.956891 19.808615 19.660339 19.532291 19.390193 19.248095 19.109015 18.970465 18.831456 18.690117 18.539944 18.409709 18.279968 18.139742 17.982198 17.824655 17.660104 17.505632 17.348089 17.190545 17.038579 16.887213 16.742391 16.592794 16.456874 16.320954 16.167835 15.991757 15.815679 15.646881 15.490048 15.326327 15.162605 14.998883 14.835162 14.674719 14.516821 14.343832 14.170843 14.009704 13.861427 13.713151 13.525709 13.341422 13.143721 12.946113 12.766946 12.587779 12.397354 12.204617 12.016183 11.818938 11.582908 11.389871 11.201437 10.995778 10.748651 10.501524 10.213181 9.898094 9.583007 9.260874 8.905316 8.685991 8.466666 8.303062 8.179498 8.055935 8.063256 7.714189 7.365122 7.020795 6.330088 5.699914 5.069740 4.179918 3.398379 2.616840 1.854857 1.153435 0.452212 -0.202542 -0.786380 -1.370217 -1.912704 -2.564223 -3.243822 -3.923422 -4.261446 -99.000000 -99.000000 -99.000000 -99.000000 -99.000000 -99.000000 -99.000000 -99.000000 -99.000000 -99.000000 -99.000000 -99.000000 -99.000000 -99.000000 -99.000000 -99.000000 -99.000000 -99.000000 -99.000000 -99.000000 -99.000000 -99.000000 -99.000000 -99.000000 -99.000000 -99.000000 -99.000000 -99.000000 -99.000000 -99.000000 -99.000000 -99.000000 -99.000000 -99.000000 -99.000000 -99.000000 -99.000000 -99.000000 -99.000000 -99.000000 -99.000000 -99.000000 -99.000000 -99.000000 -99.000000 -99.000000 -99.000000 -99.000000 -99.000000 -99.000000 -99.000000 -99.000000 -99.000000 -99.000000 -99.000000 -99.000000 -99.000000 -99.000000 -99.000000
39.705401 39.411938 39.130256 38.852239 38.574221 38.232183 37.852225 37.472267 37.047444 36.451250 35.855056 35.263448 34.756838 34.250228 33.743617 33.125573 32.476865 31.828157 31.339806 30.969115 30.598425 30.235402 29.895603 29.555803 29.211259 28.825123 28.438988 28.052852 27.775113 27.481650 27.188186 26.894723 26.601260 26.307796 26.038101 25.991765 25.945428 25.867307 25.614001 25.360696 25.110731 24.740731 24.320615 23.900499 23.472089 22.999459 22.526828 22.156922 21.912884 21.668846 21.437050 21.236259 21.035469 20.834678 20.666765 20.499955 20.333144 20.151952 19.960429 19.768905 19.606607 19.489222 19.371837 19.254169 19.136784 19.019398 18.907808 18.850089 18.772862 18.695635 18.688078 18.715879 18.743681 18.800069 18.880386 18.960702 18.977455 18.782843 18.588230 18.405502 18.380789 18.356077 18.331364 18.400723 18.465594 18.530464 18.514513 18.434197 18.353881 18.247693 18.074704 17.901715 17.768019 17.919384 18.070749 18.222115 18.325168 18.411662 18.498157 18.653525 18.897563 19.141601 19.365061 19.686327 20.007592 20.304901 20.487157 20.669413 20.844552 20.784353 20.713304 20.642255 20.385793 20.049083 19.712372 19.462662 19.289673 19.116685 18.935790 18.880186 18.824583 18.768979 19.036341 19.308180 19.580020 20.199712 20.990518 21.781325 21.867055 21.243059 20.619063 19.998493 19.433190 18.867887 18.338510 18.947110 19.568017 20.188924 20.325271 20.340717 20.356162 20.345670 20.249908 20.154146 20.031675 19.883399 19.735123 19.594756 19.452634 19.310536 19.168438 19.028970 18.889961 18.750952 18.617636 18.487894 18.358153 18.218209 18.060666 17.903122 17.745579 17.588035 17.430492 17.272948 17.123239 16.971874 16.820509 16.677729 16.541809 16.405890 16.252770 16.076692 15.900614 15.727180 15.563458 15.399736 15.236015 15.072293 14.908572 14.744850 14.575615 14.402626 14.229638 14.066523 13.918247 13.769970 13.609719 13.412018 13.214316 13.018715 12.840081 12.660914 12.481747 12.295464 12.107029 11.918595 11.728750 11.540316 11.351881 11.146222 10.899095 10.651968 10.409482 10.094395 9.779308 9.464222 9.232085 9.012760 8.793435 8.623340 8.499777 8.376213 8.174926 7.825859 7.476792 7.100056 6.469882 5.839708 5.209534 4.456098 3.674559 2.893020 2.163455 1.462232 0.761009 0.106254 -0.477583 -1.061421 -1.659605 -2.339204 -3.018803 -3.698403 -4.036427 -99.000000 -99.000000 -99.000000 -99.000000 -99.000000 -99.000000 -99.000000 -99.000000 -99.000000 -99.000000 -99.000000 -99.000000 -99.000000 -99.000000 -99.000000 -99.000000 -99.000000 -99.000000 -99.000000 -99.000000 -99.000000 -99.000000 -99.000000 -99.000000 -99.000000 -99.000000 -99.000000 -99.000000 -99.000000 -99.000000 -99.000000 -99.000000 -99.000000 -99.000000 -99.000000 -99.000000 -99.000000 -99.000000 -99.000000 -99.000000 -99.000000 -99.000000 -99.000000 -99.000000 -99.000000 -99.000000 -99.000000 -99.000000 -99.000000 -99.000000 -99.000000 -99.000000 -99.000000 -99.000000 -99.000000 -99.000000 -99.000000 -99.000000 -99.000000
40.042930 39.749467 39.467785 39.189767 38.911749 38.520079 38.106497 37.726539 37.339454 36.845033 36.248839 35.657232 35.150621 34.644011 34.102161 33.552519 32.904401 32.255693 31.767342 31.396651 31.025961 30.655270 30.300637 29.960837 29.616294 29.230158 28.844022 28.335163 28.405166 28.111703 27.818240 27.524776 27.231313 26.908580 26.369879 26.041269 25.994932 25.916811 25.663506 25.410200 25.475262 25.105262 24.685146 24.211084 23.997553 23.582258 23.109628 22.746220 22.509185 22.265147 22.037555 21.859562 21.658771 21.457981 21.290068 21.123257 20.978539 20.804507 20.612984 20.396326 20.200657 20.083272 19.973842 19.906928 19.728584 19.611198 19.499608 19.637656 19.560429 19.483202 19.381832 19.404438 19.432239 19.488628 19.568944 19.617107 19.585493 19.637915 19.443303 19.260574 19.235862 19.211149 19.325521 19.411058 19.475929 19.566460 19.569853 19.489536 19.414723 19.338730 19.188548 19.015559 18.881863 19.033228 19.184594 19.405522 19.511018 19.597513 19.673919 19.634903 19.820141 20.064179 20.105802 20.192619 20.513884 20.811194 20.993450 21.175706 21.155079 21.189388 21.118339 21.047290 20.790827 20.454117 20.152934 19.959954 19.786966 19.614110 19.385519 19.105205 19.049602 18.993998 19.261360 19.533199 19.550217 20.098453 20.889260 21.749743 21.918809 21.294813 20.638999 19.841229 19.383686 18.818383 18.289006 18.731092 19.351999 19.972905 20.109253 20.124698 20.293907 20.422176 20.326415 20.215351 20.031675 19.883399 19.735123 19.660012 19.511139 19.369041 19.226943 19.087475 18.948466 18.804093 18.673602 18.546399 18.416658 18.277597 18.121421 17.963877 17.806334 17.648790 17.491247 17.351558 17.201996 17.050631 16.888772 16.742508 16.607065 16.471145 16.318026 16.141948 15.965937 15.796628 15.630964 15.467242 15.303521 15.139799 14.976077 14.804070 14.649256 14.479133 14.306144 14.134636 13.979002 13.830725 13.670474 13.472773 13.275071 13.095222 12.921088 12.741921 12.562754 12.376471 12.188036 12.005015 11.807436 11.610071 11.421637 11.215978 10.968851 10.721724 10.546744 10.231657 9.916570 9.650820 9.405370 9.186025 8.966700 8.761754 8.621287 8.497724 8.296436 7.947369 7.598303 7.200010 6.611644 5.981470 5.351296 4.665366 3.883827 3.102288 2.379416 1.680500 0.979278 0.324523 -0.259315 -0.843152 -1.475431 -2.114185 -2.793784 -3.473384 -3.811408 -99.000000 -99.000000 -99.000000 -99.000000 -99.000000 -99.000000 -99.000000 -99.000000 -99.000000 -99.000000 -99.000000 -99.000000 -99.000000 -99.000000 -99.000000 -99.000000 -99.000000 -99.000000 -99.000000 -99.000000 -99.000000 -99.000000 -99.000000 -99.000000 -99.000000 -99.000000 -99.000000 -99.000000 -99.000000 -99.000000 -99.000000 -99.000000 -99.000000 -99.000000 -99.000000 -99.000000 -99.000000 -99.000000 -99.000000 -99.000000 -99.000000 -99.000000 -99.000000 -99.000000 -99.000000 -99.000000 -99.000000 -99.000000 -99.000000 -99.000000 -99.000000 -99.000000 -99.000000 -99.000000 -99.000000 -99.000000 -99.000000 -99.000000 -99.000000
40.380458 40.086995 39.805314 39.527296 39.249278 38.857607 38.363353 37.980810 37.593726 37.189055 36.642623 36.051015 35.544405 35.017654 34.455440 33.905799 33.331937 32.683229 32.194878 31.824187 31.453497 31.082806 30.712116 30.365872 30.021328 29.635192 29.174989 28.609686 28.701848 28.741756 28.448293 28.154830 27.861366 27.437375 26.898674 26.194362 26.044437 25.966315 25.713010 25.660626 25.839793 25.469793 25.025092 24.496858 24.283328 24.165057 23.692427 23.329019 23.103516 22.861447 22.633855 22.470134 22.282074 22.081284 21.913371 21.757747 21.631095 21.457063 21.262216 20.990376 20.794708 20.677322 20.644399 20.577485 20.351982 20.202999 20.091408 20.282931 20.347996 20.270768 20.169398 20.092996 20.120798 20.177186 20.257502 20.121150 20.089535 20.376820 20.298375 20.115647 20.090934 20.147422 20.335857 20.421394 20.495146 20.621799 20.625192 20.544876 20.492564 20.416571 20.293008 20.129403 19.995707 20.147073 20.341157 20.591373 20.696869 20.779148 20.844019 20.805002 20.742719 20.986757 21.028380 20.778164 21.020177 21.317487 21.499743 21.552099 21.465605 21.514880 21.523373 21.452324 21.195862 20.860284 20.650226 20.457247 20.284258 20.113653 19.885061 19.452589 19.274621 19.219017 19.486379 19.625037 19.448959 19.997195 20.800633 21.801497 21.970563 21.346568 20.445482 19.647713 19.280111 18.768879 18.239501 18.631816 19.135980 19.756887 19.893235 19.953386 20.370413 20.498683 20.402921 20.215351 20.031675 19.883399 19.792181 19.725267 19.573902 19.427546 19.285447 19.145980 19.004963 18.853598 18.723106 18.604904 18.475163 18.336102 18.181647 18.024632 17.867089 17.709546 17.563145 17.430315 17.280753 17.124766 16.951777 16.805514 16.672321 16.536401 16.383281 16.207203 16.035693 15.866383 15.699573 15.534748 15.371026 15.207305 15.039491 14.860324 14.705510 14.555639 14.382650 14.211143 14.041243 13.891481 13.731229 13.533528 13.347791 13.171728 12.998739 12.822928 12.643761 12.457478 12.270262 12.097273 11.899694 11.680369 11.491393 11.285734 11.038607 10.847499 10.684006 10.368919 10.082196 9.844336 9.598886 9.359289 9.139964 8.935019 8.742797 8.619234 8.417947 8.068880 7.699558 7.299018 6.727537 6.123232 5.493058 4.811806 4.093095 3.311555 2.588684 1.898769 1.197546 0.542791 -0.041046 -0.662005 -1.295416 -1.913234 -2.568765 -3.248365 -3.586389 -3.895298 -99.000000 -99.000000 -99.000000 -99.000000 -99.000000 -99.000000 -99.000000 -99.000000 -99.000000 -99.000000 -99.000000 -99.000000 -99.000000 -99.000000 -99.000000 -99.000000 -99.000000 -99.000000 -99.000000 -99.000000 -99.000000 -99.000000 -99.000000 -99.000000 -99.000000 -99.000000 -99.000000 -99.000000 -99.000000 -99.000000 -99.000000 -99.000000 -99.000000 -99.000000 -99.000000 -99.000000 -99.000000 -99.000000 -99.000000 -99.000000 -99.000000 -99.000000 -99.000000 -99.000000 -99.000000 -99.000000 -99.000000 -99.000000 -99.000000 -99.000000 -99.000000 -99.000000 -99.000000 -99.000000 -99.000000 -99.000000 -99.000000 -99.000000
40.713714 40.424524 40.142842 39.864824 39.586806 39.195136 38.700882 38.235082 37.847997 37.443327 37.036406 36.444798 35.933148 35.370934 34.808720 34.259079 33.712310 33.110765 32.622414 32.251724 31.881033 31.510343 31.139652 30.770906 30.426362 30.014815 29.449512 28.884209 28.976372 29.170984 29.078346 28.784883 28.398642 27.966170 27.427468 26.723157 26.093941 26.015819 25.845990 26.025157 26.204324 25.834323 25.310866 24.782633 24.569102 24.504231 24.275226 23.911819 23.686315 23.457748 23.230156 23.066434 22.902713 22.704586 22.536955 22.410302 22.283650 22.109618 21.856266 21.584427 21.388758 21.327312 21.314955 21.248042 21.022539 20.797035 20.683208 20.874731 21.066255 21.058335 20.956965 20.848847 20.809356 20.865744 20.798182 20.625193 20.593578 20.880863 21.153447 20.970719 20.969323 21.157758 21.346192 21.431729 21.550486 21.677138 21.680531 21.619830 21.570405 21.494413 21.370849 21.243248 21.109552 21.276791 21.527007 21.777223 21.882719 21.949247 22.014118 21.975101 21.879340 21.909335 21.950958 21.700742 21.526470 21.823779 21.949120 21.862626 21.776131 21.825406 21.884099 21.857358 21.600896 21.357576 21.147518 20.954539 20.783095 20.613195 20.384603 19.952131 19.519659 19.444036 19.699856 19.523778 19.347700 19.895936 20.852387 21.853251 22.022318 21.212672 20.251966 19.454196 19.086595 18.718993 18.189997 18.582311 18.974625 19.540869 19.677216 20.029893 20.446920 20.575189 20.416142 20.215351 20.031675 19.916129 19.857436 19.790523 19.639157 19.487792 19.343952 19.204485 19.054467 18.903102 18.772610 18.655225 18.533668 18.394607 18.240152 18.085388 17.927844 17.774733 17.641902 17.509071 17.359509 17.187772 17.014783 16.868519 16.735688 16.601656 16.448537 16.275349 16.105449 15.936139 15.769329 15.602518 15.438532 15.274810 15.095746 14.916579 14.761765 14.616578 14.459157 14.287649 14.117749 13.952236 13.791985 13.600375 13.424297 13.248235 13.075246 12.902257 12.724768 12.538484 12.362520 12.189531 11.991952 11.772627 11.561149 11.355490 11.139215 10.984761 10.821267 10.513572 10.275712 10.037853 9.792402 9.545275 9.313229 9.108283 8.913671 8.740744 8.539457 8.178524 7.798567 7.398027 6.826546 6.255064 5.634820 4.953568 4.264702 3.520823 2.797952 2.109085 1.415815 0.761060 0.154363 -0.481989 -1.115401 -1.733218 -2.351036 -3.023345 -3.361370 -3.670279 -99.000000 -99.000000 -99.000000 -99.000000 -99.000000 -99.000000 -99.000000 -99.000000 -99.000000 -99.000000 -99.000000 -99.000000 -99.000000 -99.000000 -99.000000 -99.000000 -99.000000 -99.000000 -99.000000 -99.000000 -99.000000 -99.000000 -99.000000 -99.000000 -99.000000 -99.000000 -99.000000 -99.000000 -99.000000 -99.000000 -99.000000 -99.000000 -99.000000 -99.000000 -99.000000 -99.000000 -99.000000 -99.000000 -99.000000 -99.000000 -99.000000 -99.000000 -99.000000 -99.000000 -99.000000 -99.000000 -99.000000 -99.000000 -99.000000 -99.000000 -99.000000 -99.000000 -99.000000 -99.000000 -99.000000 -99.000000 -99.000000 -99.000000
41.039992 40.761974 40.480371 40.202353 39.924335 39.532664 39.038410 38.544156 38.102269 37.697598 37.292928 36.838582 36.286428 35.724214 35.162000 34.612359 34.065590 33.518822 33.049950 32.679260 32.308569 31.937879 31.567188 31.196498 30.831397 30.289339 29.724036 29.158733 29.250895 29.445507 29.640120 29.359909 28.927437 28.494964 27.956263 27.251951 26.547639 26.065323 26.210520 26.389687 26.568855 26.124875 25.596641 25.068407 24.854876 24.790005 24.725134 24.494618 24.269114 24.043611 23.826456 23.662735 23.499013 23.327889 23.189510 23.062858 22.936205 22.722156 22.450317 22.178477 22.010225 21.997868 21.985512 21.918599 21.693095 21.467592 21.275008 21.466531 21.658055 21.845902 21.744532 21.636413 21.528295 21.475213 21.302224 21.129235 21.097621 21.384906 21.672191 21.825792 21.979659 22.168093 22.356528 22.479172 22.605825 22.732477 22.747097 22.697672 22.648246 22.572254 22.448690 22.325127 22.223396 22.462641 22.712857 22.963073 23.054475 23.119346 23.184217 23.145200 23.049439 22.953677 22.873536 22.623320 22.373104 22.330072 22.259646 22.173152 22.086658 22.135932 22.194625 22.253318 22.064926 21.854868 21.644810 21.452537 21.282637 21.112737 20.884146 20.451674 20.019201 19.669055 19.598597 19.422519 19.246441 19.903277 20.904141 21.905006 21.979862 21.019156 20.058450 19.260680 18.893078 18.525477 18.140493 18.532807 18.925121 19.324850 19.689373 20.106399 20.523426 20.616932 20.416142 20.215351 20.040077 19.981384 19.922692 19.855778 19.704413 19.553048 19.402457 19.255336 19.103971 18.952606 18.822115 18.704729 18.587344 18.453112 18.298657 18.144203 17.988599 17.853489 17.720659 17.587828 17.423766 17.250777 17.077788 16.931524 16.798693 16.665863 16.515004 16.345105 16.175205 16.005895 15.839085 15.672274 15.506038 15.331168 15.152001 14.972834 14.818020 14.672833 14.527646 14.364156 14.194256 14.024356 13.852959 13.676881 13.500803 13.324741 13.151752 12.978763 12.805774 12.627766 12.454777 12.281788 12.084210 11.864885 11.645559 11.430931 11.276477 11.122022 10.958529 10.707089 10.469229 10.231369 9.985919 9.738792 9.491665 9.281548 9.086935 8.892323 8.657491 8.277533 7.897575 7.497035 6.925554 6.354073 5.776582 5.095330 4.406464 3.717597 3.007219 2.318353 1.629486 0.970730 0.334378 -0.301974 -0.935386 -1.553203 -2.171021 -2.798326 -3.136351 -3.445260 -3.754168 -99.000000 -99.000000 -99.000000 -99.000000 -99.000000 -99.000000 -99.000000 -99.000000 -99.000000 -99.000000 -99.000000 -99.000000 -99.000000 -99.000000 -99.000000 -99.000000 -99.000000 -99.000000 -99.000000 -99.000000 -99.000000 -99.000000 -99.000000 -99.000000 -99.000000 -99.000000 -99.000000 -99.000000 -99.000000 -99.000000 -99.000000 -99.000000 -99.000000 -99.000000 -99.000000 -99.000000 -99.000000 -99.000000 -99.000000 -99.000000 -99.000000 -99.000000 -99.000000 -99.000000 -99.000000 -99.000000 -99.000000 -99.000000 -99.000000 -99.000000 -99.000000 -99.000000 -99.000000 -99.000000 -99.000000 -99.000000 -99.000000
41.573243 41.275215 40.978879 40.700861 40.423858 40.100164 39.605910 39.111656 38.643237 38.238567 37.833896 37.434080 36.970866 36.408652 35.846438 35.529834 34.983065 34.436297 33.991088 33.620397 33.249707 32.817691 32.447000 32.076310 31.299343 30.734040 30.168737 29.673785 29.792184 29.986797 30.080050 29.784450 29.351978 28.919506 28.380805 27.676493 26.972181 26.674308 26.752895 26.932062 27.111229 27.033103 26.504869 25.976635 25.763104 25.698234 25.633363 25.447900 25.232132 25.006629 24.793776 24.630055 24.466333 24.167914 24.118030 23.991378 23.864725 23.773082 23.501242 23.229403 23.085530 23.073174 23.060817 23.100395 22.920181 22.694678 22.477692 22.686918 22.878442 23.069965 23.027302 22.919184 22.809810 22.652304 22.479315 22.306326 22.254808 22.480740 22.768025 23.048395 23.236830 23.425264 23.547627 23.473186 23.599839 23.726491 23.748281 23.698856 23.649431 23.599502 23.475938 23.352375 23.243732 23.357195 23.607411 23.857628 23.944010 24.008880 24.043703 23.859957 23.764195 23.668434 23.509417 23.259201 23.008985 22.892771 22.806276 22.719782 22.611963 22.658032 22.716724 22.731616 22.298518 22.088460 21.878402 21.348118 21.152059 20.982160 20.753568 20.321096 19.888624 19.532187 19.451345 19.275267 19.099189 19.804784 20.805648 21.804073 21.721954 20.761248 19.800541 19.002772 18.635170 18.267569 18.057446 18.320790 18.713104 19.105419 19.266076 19.683103 20.100129 20.169256 19.968465 19.767675 19.982984 20.054306 19.995613 19.927055 19.768135 19.616770 19.465405 19.323238 19.171873 19.020508 18.890016 18.772631 18.655246 18.508550 18.354096 18.199642 18.060323 17.915382 17.782551 17.649720 17.480639 17.307650 17.133161 16.983798 16.850967 16.718136 16.599228 16.434791 16.264891 16.095582 15.928771 15.761961 15.588196 15.408887 15.229720 15.050553 14.886540 14.741353 14.596166 14.439129 14.269229 14.099329 13.928042 13.747255 13.571177 13.395052 13.215994 13.043005 12.870016 12.713891 12.540903 12.367914 12.170335 11.951010 11.731685 11.546729 11.392275 11.237820 11.058741 10.820882 10.583022 10.351008 10.115043 9.867916 9.620789 9.359758 9.165145 8.970533 8.712038 8.332080 7.952122 7.603884 7.055225 6.483744 5.912263 5.238625 4.549759 3.866088 3.191957 2.503090 1.814224 1.083123 0.434670 -0.201682 -0.835094 -1.452911 -2.070729 -2.724680 -2.911332 -3.220241 -3.529149 -99.000000 -99.000000 -99.000000 -99.000000 -99.000000 -99.000000 -99.000000 -99.000000 -99.000000 -99.000000 -99.000000 -99.000000 -99.000000 -99.000000 -99.000000 -99.000000 -99.000000 -99.000000 -99.000000 -99.000000 -99.000000 -99.000000 -99.000000 -99.000000 -99.000000 -99.000000 -99.000000 -99.000000 -99.000000 -99.000000 -99.000000 -99.000000 -99.000000 -99.000000 -99.000000 -99.000000 -99.000000 -99.000000 -99.000000 -99.000000 -99.000000 -99.000000 -99.000000 -99.000000 -99.000000 -99.000000 -99.000000 -99.000000 -99.000000 -99.000000 -99.000000 -99.000000 -99.000000 -99.000000 -99.000000 -99.000000 -99.000000
42.203296 41.849014 41.552677 41.274660 41.031409 40.710429 40.280967 39.786713 39.318294 38.913624 38.509806 38.111387 37.771587 37.247973 36.685759 36.518320 36.164415 35.617647 35.172438 34.801747 34.361327 33.909033 33.538343 32.913003 31.823638 31.258335 30.710532 30.339841 30.458241 30.652853 30.152056 29.911367 29.727760 29.295288 28.756586 28.052274 27.588705 27.513629 27.399332 27.557615 27.736782 27.989549 27.704221 27.175987 26.962456 26.897585 26.659714 26.458235 26.372979 26.147475 25.934623 25.770901 25.551339 25.097243 25.130337 25.048967 24.922315 24.897189 24.765849 24.494010 24.350137 24.337781 24.381852 24.450509 24.407557 24.182054 23.965068 24.193661 24.392820 24.584343 24.541680 24.433562 24.301686 24.144180 23.971191 23.883641 23.863694 23.853356 24.140641 24.421012 24.609446 24.786337 24.773981 24.578982 24.565170 24.691823 24.713613 24.664188 24.645383 24.603086 24.479523 24.365576 24.267569 24.153272 24.365726 24.615942 24.702324 24.767195 24.649005 24.443883 24.265988 24.170226 24.011210 23.760994 23.595413 23.549826 23.463332 23.368936 23.233016 23.279084 23.337777 23.188404 22.659391 22.198719 21.988662 21.458377 20.726773 20.556874 20.328282 19.895810 19.496589 19.221661 19.236182 19.106502 18.930424 19.636020 20.636884 21.419290 21.339245 20.473223 19.512517 18.714747 18.347146 18.053266 17.974189 18.085396 18.425080 18.817394 18.824039 19.026047 19.443074 19.512200 19.311410 19.244998 19.503693 20.130812 20.072119 20.003562 19.833662 19.679775 19.528410 19.392827 19.248379 19.097014 18.966523 18.849138 18.713161 18.562555 18.408101 18.266037 18.139080 17.972269 17.836555 17.703725 17.534643 17.361654 17.180415 17.031052 16.898221 16.759338 16.639732 16.533800 16.363900 16.194590 16.027780 15.858210 15.675954 15.496644 15.317477 15.138310 14.970213 14.815609 14.670422 14.513385 14.343486 14.177914 14.009048 13.814761 13.638683 13.462558 13.277213 13.101510 12.928521 12.781624 12.624160 12.451171 12.253592 12.034267 11.830950 11.652488 11.498033 11.332294 11.135248 10.897388 10.660341 10.441015 10.209039 9.966925 9.719798 9.451101 9.198898 9.004286 8.745791 8.365833 8.016662 7.705143 7.192354 6.627756 6.056275 5.382638 4.693771 4.039352 3.365221 2.676355 1.968318 1.233886 0.497675 -0.138677 -0.772088 -1.389906 -2.020368 -2.724680 -2.780000 -2.995222 -3.304130 -3.627991 -99.000000 -99.000000 -99.000000 -99.000000 -99.000000 -99.000000 -99.000000 -99.000000 -99.000000 -99.000000 -99.000000 -99.000000 -99.000000 -99.000000 -99.000000 -99.000000 -99.000000 -99.000000 -99.000000 -99.000000 -99.000000 -99.000000 -99.000000 -99.000000 -99.000000 -99.000000 -99.000000 -99.000000 -99.000000 -99.000000 -99.000000 -99.000000 -99.000000 -99.000000 -99.000000 -99.000000 -99.000000 -99.000000 -99.000000 -99.000000 -99.000000 -99.000000 -99.000000 -99.000000 -99.000000 -99.000000 -99.000000 -99.000000 -99.000000 -99.000000 -99.000000 -99.000000 -99.000000 -99.000000 -99.000000 -99.000000
42.778057 42.422812 42.126476 41.870642 41.638961 41.317981 40.916399 40.461770 39.993351 39.588694 39.187113 38.788694 38.448895 38.087294 37.525080 37.357641 37.280413 36.798997 36.353788 35.946923 35.452669 35.000376 34.586438 33.437297 32.347932 31.782629 31.376588 31.005898 31.124297 30.844969 30.224062 29.983373 29.967928 29.671069 29.132368 28.495986 28.428026 28.352950 28.238653 28.183168 28.362335 28.615102 28.874586 28.375338 28.161807 27.994404 27.670050 27.468571 27.422235 27.288322 27.075469 26.911748 26.480668 26.026572 26.059666 26.106557 25.979904 25.954779 25.967135 25.758617 25.614744 25.626937 25.731966 25.800623 25.763554 25.669430 25.452444 25.681037 25.907198 26.098721 26.056058 25.932571 25.793562 25.636056 25.504884 25.492527 25.472581 25.435512 25.513257 25.793628 25.982062 26.012691 26.000335 25.805336 25.573654 25.657155 25.678945 25.645878 25.648968 25.606671 25.485174 25.389412 25.291405 25.177109 25.124040 25.374256 25.460638 25.399493 25.254306 25.049184 24.811324 24.672019 24.513002 24.289538 24.252468 24.206882 24.120387 23.989988 23.854068 23.900137 23.812004 23.645193 23.116180 22.430403 22.098921 21.568637 20.663534 20.131588 19.902996 19.470524 19.186063 18.911134 18.925655 18.937738 18.761660 19.467255 20.330196 21.034507 20.954462 20.126587 19.224493 18.426723 18.059121 17.970009 17.890932 18.002139 18.137056 18.529370 18.536015 18.446431 18.786018 18.855145 18.722461 18.765708 19.024402 19.728714 20.148626 20.080068 19.910168 19.742781 19.591415 19.455832 19.323002 19.173521 19.043029 18.915442 18.767165 18.616559 18.465268 18.344793 18.217836 18.051026 17.890560 17.757729 17.588648 17.409926 17.227669 17.078306 16.941940 16.799842 16.680235 16.590652 16.462908 16.293599 16.126788 15.945967 15.763711 15.584402 15.405235 15.226068 15.057970 14.894248 14.744678 14.587642 14.419553 14.258921 14.090055 13.895443 13.706189 13.530064 13.344718 13.160015 12.987026 12.840129 12.701120 12.534428 12.336849 12.125143 11.936709 11.758247 11.603413 11.408801 11.211754 10.973895 10.750348 10.531023 10.299047 10.064276 9.818806 9.550110 9.265914 9.038039 8.779544 8.405205 8.117920 7.806401 7.293613 6.771768 6.200287 5.526650 4.861325 4.212617 3.538486 2.838838 2.119080 1.384649 0.627822 -0.075672 -0.709083 -1.326900 -2.020368 -2.724680 -2.780000 -2.780000 -3.079111 -3.388020 -99.000000 -99.000000 -99.000000 -99.000000 -99.000000 -99.000000 -99.000000 -99.000000 -99.000000 -99.000000 -99.000000 -99.000000 -99.000000 -99.000000 -99.000000 -99.000000 -99.000000 -99.000000 -99.000000 -99.000000 -99.000000 -99.000000 -99.000000 -99.000000 -99.000000 -99.000000 -99.000000 -99.000000 -99.000000 -99.000000 -99.000000 -99.000000 -99.000000 -99.000000 -99.000000 -99.000000 -99.000000 -99.000000 -99.000000 -99.000000 -99.000000 -99.000000 -99.000000 -99.000000 -99.000000 -99.000000 -99.000000 -99.000000 -99.000000 -99.000000 -99.000000 -99.000000 -99.000000 -99.000000 -99.000000 -99.000000
43.351856 42.996611 42.709875 42.478194 42.246512 41.925532 41.523951 41.122369 40.668408 40.266002 39.864420 39.466002 39.126202 38.786402 38.364401 38.196962 38.119734 37.980347 37.532520 37.038266 36.544012 36.091718 35.110732 33.961591 32.872226 32.413335 32.042644 31.671954 31.537882 30.916975 30.296068 30.055379 30.039934 30.024488 29.508150 29.335307 29.267347 29.192271 29.077974 28.963678 28.987888 29.240655 29.500138 29.574690 29.329093 29.004739 28.680385 28.478906 28.432570 28.386234 28.216316 27.864092 27.409996 26.955900 26.988995 27.038420 27.037494 27.012368 27.024725 27.023224 26.879351 26.977051 27.082080 27.150738 27.113669 27.076600 26.939820 27.168413 27.397005 27.613100 27.563456 27.424447 27.285439 27.127932 27.113770 27.101414 27.081467 27.044398 27.007329 27.166244 27.251401 27.239045 27.226688 27.031690 26.800008 26.622486 26.646374 26.649463 26.652552 26.610256 26.509011 26.413249 26.315242 26.200946 26.086649 26.132570 26.149981 26.004794 25.859607 25.654485 25.416625 25.178766 25.014795 24.946593 24.909524 24.863937 24.746960 24.611041 24.475121 24.435603 24.268792 24.101982 23.572969 22.887191 22.209180 21.678896 20.773793 19.868691 19.477710 19.150466 18.875537 18.600608 18.615129 18.633664 18.592896 19.241101 19.945413 20.649725 20.569680 19.741804 18.913929 18.138699 17.973247 17.886752 17.807675 17.918882 18.030089 18.241345 18.247990 18.158407 18.128963 18.199923 18.243170 18.286417 18.545112 19.249424 19.953736 20.156575 19.986675 19.816775 19.654421 19.518838 19.386007 19.250027 19.117722 18.969446 18.821170 18.670564 18.544024 18.423550 18.296593 18.129782 17.962972 17.811734 17.639436 17.457180 17.274923 17.124541 16.982443 16.840345 16.720739 16.631155 16.541572 16.392607 16.215981 16.033725 15.851469 15.672159 15.492992 15.313825 15.145727 14.982006 14.818934 14.661898 14.500560 14.339927 14.171062 13.976450 13.781837 13.597569 13.412224 13.226879 13.045531 12.898634 12.759625 12.617685 12.420106 12.230902 12.042468 11.864006 11.679920 11.485307 11.288261 11.059681 10.840356 10.621031 10.389054 10.154284 9.917815 9.649118 9.364922 9.080726 8.813297 8.506464 8.219179 7.907660 7.394871 6.882083 6.344299 5.683298 5.034590 4.385882 3.709358 2.989600 2.269843 1.535412 0.778585 0.021759 -0.646078 -1.316056 -2.020368 -2.724680 -2.780000 -2.780000 -2.854092 -3.163001 -3.543347 -99.000000 -99.000000 -99.000000 -99.000000 -99.000000 -99.000000 -99.000000 -99.000000 -99.000000 -99.000000 -99.000000 -99.000000 -99.000000 -99.000000 -99.000000 -99.000000 -99.000000 -99.000000 -99.000000 -99.000000 -99.000000 -99.000000 -99.000000 -99.000000 -99.000000 -99.000000 -99.000000 -99.000000 -99.000000 -99.000000 -99.000000 -99.000000 -99.000000 -99.000000 -99.000000 -99.000000 -99.000000 -99.000000 -99.000000 -99.000000 -99.000000 -99.000000 -99.000000 -99.000000 -99.000000 -99.000000 -99.000000 -99.000000 -99.000000 -99.000000 -99.000000 -99.000000 -99.000000 -99.000000 -99.000000
43.963027 43.607782 43.346791 43.115110 42.883428 42.601423 42.199841 41.798260 41.408958 41.007377 40.605796 40.207377 39.867577 39.527778 39.187978 39.031478 38.954250 38.877023 38.559260 38.065006 37.570752 37.117321 35.968180 34.819040 33.733786 33.352214 32.981524 32.610833 32.023660 31.402754 30.781847 30.675167 30.659722 30.644276 30.515945 30.447985 30.380025 30.289293 30.173034 30.058737 29.944441 30.172667 30.432150 30.691634 30.510811 30.186457 29.862103 29.660624 29.614288 29.567951 29.474424 29.020328 28.566233 28.112137 28.095578 28.145003 28.194429 28.216780 28.229137 28.241493 28.202916 28.307945 28.412974 28.481632 28.444563 28.407493 28.355119 28.583712 28.812304 29.040897 28.962968 28.823959 28.684950 28.597800 28.585444 28.573087 28.553141 28.516071 28.479002 28.398128 28.380051 28.367695 28.355339 28.160340 27.928658 27.696976 27.570408 27.573497 27.576586 27.536244 27.440483 27.344721 27.246714 27.132418 27.018121 26.899265 26.732859 26.587672 26.442484 26.220812 25.982952 25.745092 25.589463 25.552394 25.515325 25.310945 25.174741 25.038821 24.902901 24.738095 24.571284 24.404473 23.846629 23.160852 22.475075 21.742706 20.837603 19.932501 19.168258 18.893329 18.618401 18.333639 18.347315 18.365849 18.384384 18.775699 19.480011 20.184323 20.104278 19.276403 18.448527 17.983425 17.896930 17.810436 17.731822 17.844701 17.955908 18.067115 18.017627 17.928044 17.838460 17.801251 17.844498 17.887746 18.146440 18.850752 19.555064 20.156593 20.059978 19.890078 19.720178 19.577572 19.444741 19.311910 19.169591 19.021315 18.873039 18.739518 18.619044 18.498569 18.366273 18.199463 18.032652 17.867008 17.698436 17.516179 17.333923 17.176790 17.034692 16.892594 16.760174 16.670591 16.581007 16.473715 16.291459 16.109202 15.933210 15.754044 15.574877 15.395709 15.227612 15.063890 14.900169 14.737394 14.576762 14.416129 14.251535 14.056923 13.862310 13.667745 13.482399 13.297054 13.111709 12.960877 12.821868 12.682859 12.525629 12.337195 12.148761 11.958513 11.763901 11.569288 11.362607 11.143282 10.923957 10.704631 10.487071 10.252300 10.017529 9.750262 9.466066 9.181870 8.896609 8.609324 8.322039 8.020130 7.507342 6.994553 6.482963 5.855495 5.206787 4.558079 3.875070 3.155312 2.435555 1.701124 0.944297 0.187471 -0.556569 -1.260531 -1.964843 -2.669155 -2.780000 -2.780000 -2.780000 -2.937982 -3.246891 -99.000000 -99.000000 -99.000000 -99.000000 -99.000000 -99.000000 -99.000000 -99.000000 -99.000000 -99.000000 -99.000000 -99.000000 -99.000000 -99.000000 -99.000000 -99.000000 -99.000000 -99.000000 -99.000000 -99.000000 -99.000000 -99.000000 -99.000000 -99.000000 -99.000000 -99.000000 -99.000000 -99.000000 -99.000000 -99.000000 -99.000000 -99.000000 -99.000000 -99.000000 -99.000000 -99.000000 -99.000000 -99.000000 -99.000000 -99.000000 -99.000000 -99.000000 -99.000000 -99.000000 -99.000000 -99.000000 -99.000000 -99.000000 -99.000000 -99.000000 -99.000000 -99.000000 -99.000000 -99.000000 -99.000000
44.694339 44.339094 44.078103 43.846422 43.581775 43.383272 43.095417 42.693836 42.312745 41.954707 41.553126 41.154707 40.814908 40.475108 40.053557 39.855939 39.773320 39.696093 39.378329 38.884075 38.470919 38.379463 37.896593 36.747453 35.662199 35.168118 34.797428 34.426737 33.839564 33.218658 33.008108 33.055869 33.040423 32.942882 32.636672 32.439403 32.371443 32.280712 32.090196 31.975900 31.861603 32.089829 32.349312 32.343428 32.198177 31.919103 31.594749 31.393271 31.346934 31.288806 31.136323 30.905988 30.451892 29.997796 29.771970 29.821395 29.870821 29.893172 29.905529 29.808227 29.586744 29.577052 29.682081 29.750739 29.713670 29.676601 29.538720 29.767312 29.995905 30.074737 30.052618 29.926552 29.787543 29.663668 29.616031 29.603675 29.583728 29.546659 29.509590 29.253201 29.194620 29.182264 29.169907 28.974909 28.743227 28.545309 28.320877 28.241804 28.244893 28.195955 28.075036 27.979275 27.881268 27.766971 27.652675 27.475314 27.245204 27.098465 26.953278 26.686223 26.423989 26.186129 26.030501 25.993432 25.934082 25.531464 24.981225 24.845305 24.709385 24.544578 24.377767 23.957374 23.479468 22.845825 22.160048 21.518391 20.752096 19.846993 19.082751 18.807822 18.532893 18.203128 18.216804 18.235338 18.189581 18.160175 18.755450 19.459762 19.379717 18.551842 17.854437 17.817163 17.842926 17.756431 17.677817 17.799697 17.910904 18.022112 17.972623 17.883040 17.781980 17.697255 17.704987 17.748234 18.006928 18.711240 19.415552 19.585045 20.122983 19.953084 19.783184 19.623805 19.489745 19.356914 19.214595 19.066319 18.924922 18.802523 18.682049 18.560303 18.406777 18.239966 18.073155 17.918762 17.795194 17.612938 17.430681 17.268983 17.124700 16.982602 16.831243 16.706594 16.617010 16.509718 16.327462 16.145206 16.005216 15.817049 15.637882 15.458715 15.290617 15.126896 14.961998 14.798149 14.637517 14.477328 14.316042 14.135679 13.941067 13.746501 13.561156 13.375811 13.186331 13.035133 12.896124 12.739769 12.601585 12.445204 12.256770 12.066522 11.871910 11.677297 11.425612 11.206287 10.986962 10.769862 10.604229 10.376060 10.141290 9.865178 9.574075 9.289879 9.004618 8.717333 8.430534 8.168643 7.655854 7.143066 6.651727 6.024260 5.375551 4.751602 4.084695 3.369081 2.649323 1.914892 1.158065 0.401424 -0.340551 -1.026511 -1.730823 -2.435135 -2.780000 -2.780000 -2.780000 -99.000000 -3.021872 -3.458703 -99.000000 -99.000000 -99.000000 -99.000000 -99.000000 -99.000000 -99.000000 -99.000000 -99.000000 -99.000000 -99.000000 -99.000000 -99.000000 -99.000000 -99.000000 -99.000000 -99.000000 -99.000000 -99.000000 -99.000000 -99.000000 -99.000000 -99.000000 -99.000000 -99.000000 -99.000000 -99.000000 -99.000000 -99.000000 -99.000000 -99.000000 -99.000000 -99.000000 -99.000000 -99.000000 -99.000000 -99.000000 -99.000000 -99.000000 -99.000000 -99.000000 -99.000000 -99.000000 -99.000000 -99.000000 -99.000000 -99.000000 -99.000000 -99.000000 -99.000000 -99.000000 -99.000000 -99.000000 -99.000000
45.425651 45.070406 44.809415 44.565741 44.256832 44.058329 43.959478 43.589412 43.208320 42.877788 42.500456 42.102037 41.762238 41.371726 40.917630 40.720012 40.592389 40.515162 40.197399 39.703145 39.535259 39.443803 39.480872 38.675866 37.590613 37.065468 36.613331 36.242641 35.655468 35.234355 35.388809 35.436570 35.415369 35.118816 34.812607 34.491342 34.362862 34.272130 34.055894 33.893062 33.778766 34.006991 34.125264 33.927562 33.782311 33.651750 33.327396 33.125917 33.079581 32.940446 32.787963 32.655132 32.337552 31.883456 31.638583 31.497787 31.547213 31.569564 31.547763 31.282102 31.060619 30.884541 30.951189 31.019846 30.982777 30.869589 30.722320 30.950912 31.089306 31.098574 31.076455 31.029146 30.890137 30.766262 30.655055 30.634262 30.614315 30.577246 30.371597 30.108273 30.040313 29.996833 29.984476 29.789477 29.573104 29.409382 29.184950 28.919289 28.913199 28.864262 28.722164 28.613828 28.515821 28.401525 28.245975 28.051363 27.821253 27.609258 27.464071 27.197016 26.865027 26.627167 26.471538 26.434469 26.154600 25.751983 25.047671 24.651789 24.515869 24.351062 24.045597 23.455581 22.977676 22.530799 21.845021 21.203364 20.613348 19.761486 18.997244 18.722315 18.409327 18.072617 18.086293 18.067381 17.987064 17.957658 18.030889 18.735201 18.655156 17.827280 17.669922 17.632648 17.725320 17.702427 17.623813 17.747376 17.865901 17.977108 17.927619 17.833271 17.718975 17.634250 17.572468 17.608722 17.867417 18.571729 18.849950 19.013496 19.714719 20.016089 19.846189 19.686811 19.534749 19.401918 19.259599 19.111491 18.987927 18.865529 18.745054 18.600806 18.447280 18.280470 18.121882 17.970517 17.847036 17.709696 17.527440 17.365741 17.214708 17.072610 16.921250 16.757529 16.653013 16.545721 16.363465 16.210053 16.077222 15.888405 15.700887 15.521720 15.353623 15.189564 15.022753 14.858905 14.698272 14.540333 14.379047 14.206059 14.019823 13.825258 13.639913 13.452111 13.260588 13.109389 12.963940 12.784773 12.646588 12.544649 12.364779 12.174531 11.979919 11.742926 11.488618 11.269292 11.051354 10.835117 10.669485 10.499821 10.265050 9.988938 9.683119 9.397888 9.112628 8.825342 8.579046 8.317155 7.804367 7.305478 6.820492 6.193024 5.556491 4.954119 4.287212 3.582849 2.863091 2.128660 1.371833 0.617442 -0.124533 -0.804132 -1.496803 -2.201115 -2.552466 -99.000000 -2.780000 -2.780000 -2.796853 -3.157928 -99.000000 -99.000000 -99.000000 -99.000000 -99.000000 -99.000000 -99.000000 -99.000000 -99.000000 -99.000000 -99.000000 -99.000000 -99.000000 -99.000000 -99.000000 -99.000000 -99.000000 -99.000000 -99.000000 -99.000000 -99.000000 -99.000000 -99.000000 -99.000000 -99.000000 -99.000000 -99.000000 -99.000000 -99.000000 -99.000000 -99.000000 -99.000000 -99.000000 -99.000000 -99.000000 -99.000000 -99.000000 -99.000000 -99.000000 -99.000000 -99.000000 -99.000000 -99.000000 -99.000000 -99.000000 -99.000000 -99.000000 -99.000000 -99.000000 -99.000000 -99.000000 -99.000000 -99.000000 -99.000000
46.107180 45.801718 45.540727 45.240798 44.931889 44.733386 44.634535 44.484987 44.103896 43.773364 43.442831 43.049368 42.689895 42.235799 41.781704 41.584085 41.445076 41.334231 41.016468 40.757142 40.599599 40.508143 40.545212 40.582281 39.519026 38.993881 38.468736 38.058544 37.471371 37.615057 37.769511 37.817272 37.591303 37.294750 36.988541 36.667276 36.354280 36.263549 36.047313 35.831077 35.695928 35.907099 35.709398 35.511696 35.366445 35.245971 35.060043 34.858564 34.749629 34.592086 34.439603 34.306772 34.173941 33.769115 33.524242 33.286383 33.223605 33.245956 33.021638 32.755976 32.534494 32.358416 32.220296 32.288954 32.207644 32.053189 31.905920 32.103876 32.113143 32.122410 32.100292 32.069401 31.992730 31.868855 31.757648 31.664849 31.644902 31.504688 31.226670 30.963345 30.895386 30.827426 30.799045 30.604046 30.437177 30.273455 30.049024 29.783362 29.581506 29.532568 29.390470 29.248382 29.150375 29.016637 28.822024 28.627412 28.397302 28.162531 27.974864 27.707809 27.374188 27.068204 26.912575 26.714918 26.375119 25.972501 25.268190 24.563878 24.322352 24.133820 23.543805 22.953789 22.475884 22.046500 21.529995 20.888337 20.298322 19.675979 18.911736 18.615527 18.278816 17.942106 17.945180 17.864863 17.784547 17.755141 17.742785 18.010639 17.930594 17.571901 17.485406 17.448132 17.540805 17.633477 17.569808 17.693372 17.816935 17.932104 17.882616 17.770266 17.655969 17.571245 17.509463 17.469210 17.727905 18.167195 18.278402 18.441948 19.143171 19.844394 19.909194 19.749816 19.592273 19.446922 19.304603 19.174496 19.050933 18.928534 18.792675 18.641310 18.487784 18.325002 18.173636 18.022271 17.898791 17.778316 17.624198 17.462499 17.311134 17.162617 17.011258 16.847536 16.689016 16.581724 16.414889 16.282059 16.149228 15.960411 15.768887 15.584725 15.416628 15.250319 15.083508 14.919660 14.760882 14.603338 14.442053 14.269064 14.096075 13.904015 13.717891 13.526367 13.334844 13.183645 13.008944 12.829777 12.691592 12.589652 12.472788 12.282541 12.062325 11.805931 11.551623 11.332845 11.116609 10.900373 10.734740 10.580286 10.388811 10.112699 9.806879 9.505898 9.220637 8.959240 8.727559 8.465668 7.959229 7.474243 6.989256 6.361788 5.759008 5.156636 4.489730 3.785418 3.076859 2.342428 1.587198 0.833460 0.091486 -0.588114 -1.267713 -1.967095 -2.318446 -2.639712 -2.780000 -2.780000 -2.780000 -2.880742 -3.374060 -99.000000 -99.000000 -99.000000 -99.000000 -99.000000 -99.000000 -99.000000 -99.000000 -99.000000 -99.000000 -99.000000 -99.000000 -99.000000 -99.000000 -99.000000 -99.000000 -99.000000 -99.000000 -99.000000 -99.000000 -99.000000 -99.000000 -99.000000 -99.000000 -99.000000 -99.000000 -99.000000 -99.000000 -99.000000 -99.000000 -99.000000 -99.000000 -99.000000 -99.000000 -99.000000 -99.000000 -99.000000 -99.000000 -99.000000 -99.000000 -99.000000 -99.000000 -99.000000 -99.000000 -99.000000 -99.000000 -99.000000 -99.000000 -99.000000 -99.000000 -99.000000 -99.000000 -99.000000
46.737233 46.520997 46.224764 45.915855 45.606946 45.408443 45.309592 45.210741 44.999472 44.668940 44.338407 43.996698 43.553968 43.099872 42.645777 42.448158 42.309149 42.170141 41.979026 41.821483 41.663939 41.572483 41.609552 41.646621 41.447439 40.922294 40.397149 39.874448 39.841304 39.995758 40.150212 40.063789 39.767237 39.470685 39.164475 38.843210 38.521945 38.254967 38.038731 37.822495 37.613090 37.491234 37.293532 37.095830 36.950579 36.830105 36.709630 36.558813 36.401269 36.243726 36.091243 35.958412 35.825581 35.654775 35.409902 35.172042 34.934182 34.761174 34.495513 34.229851 34.008369 33.832291 33.656213 33.545698 33.391244 33.236789 33.089520 33.127712 33.136980 33.146247 33.124128 33.093237 33.062347 32.971448 32.860241 32.749034 32.637778 32.359760 32.081742 31.818418 31.750458 31.682498 31.614538 31.464971 31.301250 31.137528 30.913097 30.647435 30.381774 30.200875 30.058777 29.916679 29.784929 29.592685 29.398073 29.203460 28.973350 28.738580 28.503809 28.218603 27.884981 27.551360 27.275237 26.935437 26.595638 26.193020 25.488708 24.784396 24.128836 23.632028 23.042012 22.451997 21.974091 21.544708 21.115325 20.573311 19.983295 19.393279 18.821726 18.485016 18.148305 17.811595 17.742663 17.662346 17.582030 17.552624 17.540268 17.527911 17.473879 17.387385 17.300891 17.263617 17.356289 17.448962 17.515804 17.639367 17.762931 17.886494 17.821557 17.707260 17.592964 17.508239 17.446458 17.384676 17.484439 17.595646 17.706854 17.870400 18.571623 19.272845 19.972200 19.812821 19.655278 19.497734 19.361065 19.237502 19.113938 18.984544 18.833179 18.681813 18.528287 18.376756 18.225391 18.074025 17.950545 17.830071 17.709596 17.559258 17.407892 17.256527 17.101266 16.937544 16.773822 16.619726 16.486896 16.354065 16.221234 16.032417 15.840894 15.649370 15.477885 15.311074 15.144263 14.981431 14.823887 14.666344 14.505058 14.332069 14.159080 13.982771 13.792147 13.600624 13.409100 13.233114 13.053947 12.874780 12.736596 12.634656 12.532716 12.381725 12.125331 11.868937 11.614628 11.398101 11.181865 10.965628 10.799996 10.645542 10.491087 10.236459 9.930640 9.624820 9.339435 9.107753 8.876071 8.614181 8.127994 7.643007 7.158020 6.563897 5.961525 5.359153 4.692247 3.987935 3.283623 2.556953 1.803216 1.049479 0.307504 -0.372095 -1.051694 -1.733075 -2.084427 -2.405692 -2.726957 -2.780000 -2.780000 -2.780000 -3.073284 -99.000000 -99.000000 -99.000000 -99.000000 -99.000000 -99.000000 -99.000000 -99.000000 -99.000000 -99.000000 -99.000000 -99.000000 -99.000000 -99.000000 -99.000000 -99.000000 -99.000000 -99.000000 -99.000000 -99.000000 -99.000000 -99.000000 -99.000000 -99.000000 -99.000000 -99.000000 -99.000000 -99.000000 -99.000000 -99.000000 -99.000000 -99.000000 -99.000000 -99.000000 -99.000000 -99.000000 -99.000000 -99.000000 -99.000000 -99.000000 -99.000000 -99.000000 -99.000000 -99.000000 -99.000000 -99.000000 -99.000000 -99.000000 -99.000000 -99.000000 -99.000000 -99.000000 -99.000000
47.153104 46.989474 46.839136 46.530227 46.221318 45.878314 45.765113 45.666262 45.500595 45.170063 44.839531 44.705558 44.355572 43.901476 43.447380 43.249762 43.110753 42.977951 42.804267 42.646652 42.489109 42.305340 42.277655 42.314724 42.294232 41.769087 41.243942 40.896687 40.781629 40.936083 41.090538 40.999251 40.702699 40.406146 40.099937 39.778671 39.457406 39.227235 39.010999 38.794763 38.578527 38.413187 38.215486 38.017784 37.856469 37.735995 37.615521 37.454088 37.288992 37.131449 36.978965 36.846135 36.713304 36.575419 36.340665 36.102806 35.894456 35.660326 35.394665 35.129003 34.910568 34.735013 34.558935 34.381275 34.217873 34.063419 33.907922 33.794579 33.803846 33.813113 33.651776 33.620885 33.589994 33.515383 33.404176 33.292969 33.182757 32.938180 32.660162 32.380416 32.193229 32.125269 32.057309 31.909604 31.745883 31.598225 31.438048 31.172386 30.906725 30.685341 30.543243 30.401145 30.100919 29.697533 29.502920 29.308308 29.078198 28.843427 28.479648 27.977973 27.644352 27.310730 26.796554 26.418812 26.079012 25.736018 25.171986 24.467674 23.763362 23.165932 22.575917 21.990160 21.516920 21.087537 20.663389 20.233296 19.643280 19.053265 18.814174 18.536560 18.199849 17.863138 17.852495 17.772178 17.691862 17.576783 17.564427 17.552070 17.397391 17.297467 17.210972 17.173698 17.266371 17.359043 17.376126 17.499690 17.623253 17.791201 17.953100 17.838804 17.724508 17.631086 17.569077 17.507295 17.692171 17.950437 18.061644 18.225190 18.926413 19.627635 20.017215 19.879396 19.721853 19.560749 19.438349 19.314786 19.191222 19.050185 18.895100 18.743735 18.594098 18.448144 18.296778 18.145413 17.998730 17.878256 17.757781 17.616749 17.465384 17.314150 17.172501 17.009703 16.845981 16.688163 16.555332 16.422501 16.281458 16.091929 15.900406 15.714340 15.554704 15.387893 15.221082 15.058715 14.901171 14.743628 14.578773 14.405784 14.232795 14.029620 13.866403 13.674880 13.483357 13.315600 13.136433 12.957266 12.819082 12.717142 12.615202 12.410705 12.147285 11.890890 11.640406 11.458002 11.241766 11.025529 10.859897 10.705443 10.541124 10.272762 9.966942 9.661123 9.421060 9.163453 8.931772 8.672869 8.187882 7.702895 7.288497 6.721793 6.119421 5.543754 4.923322 4.219010 3.514698 2.841191 2.094198 1.340461 0.599956 -0.075759 -0.755358 -1.434957 -1.878964 -2.200230 -2.521495 -2.622933 -2.622933 -2.629763 -2.781785 -3.289416 -99.000000 -99.000000 -99.000000 -99.000000 -99.000000 -99.000000 -99.000000 -99.000000 -99.000000 -99.000000 -99.000000 -99.000000 -99.000000 -99.000000 -99.000000 -99.000000 -99.000000 -99.000000 -99.000000 -99.000000 -99.000000 -99.000000 -99.000000 -99.000000 -99.000000 -99.000000 -99.000000 -99.000000 -99.000000 -99.000000 -99.000000 -99.000000 -99.000000 -99.000000 -99.000000 -99.000000 -99.000000 -99.000000 -99.000000 -99.000000 -99.000000 -99.000000 -99.000000 -99.000000 -99.000000 -99.000000 -99.000000 -99.000000 -99.000000 -99.000000 -99.000000 -99.000000
47.523796 47.462014 47.343680 47.128778 46.819869 46.476864 46.163396 46.064545 45.898879 45.568347 45.357056 45.346862 45.090468 44.686792 44.232696 44.035078 43.896069 43.792520 43.618836 43.409467 43.251923 43.068155 42.842453 42.879522 42.859029 42.333885 41.877573 41.754010 41.523542 41.500881 41.655336 41.567304 41.314750 41.018198 40.711988 40.390723 40.129114 39.933795 39.717559 39.501323 39.285086 39.139619 38.964799 38.767098 38.602964 38.465057 38.344582 38.183149 37.977550 37.820007 37.667524 37.534693 37.399325 37.257227 37.022473 36.788117 36.646019 36.411419 36.143978 35.878317 35.659881 35.488826 35.312748 35.135089 34.952833 34.796981 34.641484 34.431426 34.377644 34.386912 34.176478 34.019169 33.988278 33.913667 33.802459 33.706410 33.599042 33.444473 33.166455 32.886709 32.583978 32.460548 32.392588 32.244883 32.081161 32.001009 31.841654 31.608923 31.343262 31.121878 30.979780 30.766393 30.415946 29.764149 29.484919 29.290306 29.060197 28.825426 28.043111 27.541436 27.207815 26.768063 26.252008 25.710002 25.370202 25.027208 24.668874 24.010886 23.306574 22.709144 22.119192 21.544622 21.071382 20.641999 20.316860 19.886767 19.296751 18.942384 18.791673 18.621773 18.298857 17.962147 18.003244 17.963445 17.883128 17.742645 17.647684 17.635327 17.480648 17.232211 17.145717 17.108443 17.201115 17.248128 17.214112 17.337676 17.473746 17.714694 17.955643 18.021069 17.906773 17.813351 17.740091 17.678310 17.863185 18.546737 18.657944 18.821490 19.522713 20.109434 20.084721 19.946902 19.789359 19.614754 19.493707 19.395793 19.272229 19.131192 18.962606 18.811241 18.661604 18.522595 18.373285 18.221920 18.062189 17.925510 17.805035 17.664003 17.512638 17.377155 17.235506 17.077209 16.913487 16.755668 16.622838 16.485989 16.337713 16.148184 15.957085 15.784096 15.626605 15.468900 15.302089 15.139722 14.982178 14.821246 14.655279 14.482290 14.292953 14.067874 13.925776 13.749136 13.557613 13.394554 13.228691 13.049524 12.911340 12.809400 12.655589 12.439958 12.158851 11.902141 11.651657 11.500292 11.300270 11.084034 10.918402 10.763948 10.554625 10.286263 9.980443 9.763093 9.533570 9.194956 8.963274 8.704371 8.219384 7.762202 7.434759 6.868055 6.265683 5.782274 5.161842 4.457530 3.796594 3.124715 2.404724 1.650987 0.910483 0.240151 -0.438081 -1.117680 -1.617953 -2.002213 -2.323478 -2.424916 -2.424916 -2.632014 -2.784035 -2.871040 -99.000000 -99.000000 -99.000000 -99.000000 -99.000000 -99.000000 -99.000000 -99.000000 -99.000000 -99.000000 -99.000000 -99.000000 -99.000000 -99.000000 -99.000000 -99.000000 -99.000000 -99.000000 -99.000000 -99.000000 -99.000000 -99.000000 -99.000000 -99.000000 -99.000000 -99.000000 -99.000000 -99.000000 -99.000000 -99.000000 -99.000000 -99.000000 -99.000000 -99.000000 -99.000000 -99.000000 -99.000000 -99.000000 -99.000000 -99.000000 -99.000000 -99.000000 -99.000000 -99.000000 -99.000000 -99.000000 -99.000000 -99.000000 -99.000000 -99.000000 -99.000000 -99.000000
47.996336 47.934554 47.816220 47.680300 47.418420 47.075415 46.701635 46.462829 46.297163 45.995272 45.998361 45.988166 45.731772 45.472109 45.018013 44.820395 44.705940 44.607089 44.433405 44.204813 44.014738 43.830969 43.596199 43.444320 43.423827 42.898682 42.734896 42.611333 42.380864 42.133737 42.220133 42.132102 41.900421 41.630250 41.324040 41.027197 40.835673 40.640355 40.424119 40.207882 39.991646 39.846179 39.707170 39.516411 39.352278 39.204002 39.073644 38.912211 38.699064 38.508565 38.356082 38.223231 38.081133 37.939035 37.704281 37.539681 37.397583 37.162982 36.894232 36.627630 36.409195 36.239295 36.066562 35.888903 35.706647 35.530543 35.375046 35.164988 34.954930 34.960710 34.750277 34.478437 34.386562 34.311950 34.209190 34.122696 34.015327 33.860873 33.672748 33.393002 33.090271 32.795826 32.727866 32.580161 32.474842 32.403793 32.244439 32.025113 31.779799 31.558415 31.390328 31.081420 30.730973 30.079175 29.466917 29.272305 29.042195 28.415915 27.606574 27.104899 26.705414 26.223517 25.707462 25.142159 24.661392 24.318398 23.960064 23.554097 22.849785 22.252355 21.673655 21.099084 20.625844 20.263794 19.970331 19.540237 19.065069 18.919882 18.769171 18.599271 18.397866 18.061155 18.102253 18.148589 18.074394 17.933912 17.773279 17.718585 17.563905 17.273531 17.080461 17.043187 17.126273 17.086115 17.052099 17.175662 17.397239 17.638188 17.879137 18.120086 18.089039 17.995616 17.918389 17.849324 18.034200 18.729244 19.254245 19.417791 20.119014 20.176939 20.152227 20.014408 19.844836 19.668758 19.547712 19.461217 19.353236 19.212199 19.042299 18.878746 18.729110 18.590101 18.449791 18.298426 18.138695 17.978063 17.852289 17.711257 17.569902 17.440161 17.298512 17.140968 16.980993 16.823174 16.690343 16.542244 16.393968 16.204439 16.026841 15.853852 15.696361 15.544995 15.383096 15.220729 15.061474 14.897752 14.731786 14.556710 14.331206 14.106127 13.964029 13.821931 13.631869 13.468810 13.314356 13.141782 13.003597 12.873276 12.684841 12.469210 12.188103 11.913392 11.662908 11.511543 11.358775 11.142539 10.976907 10.784362 10.568126 10.299764 10.045502 9.875603 9.646079 9.303190 8.994777 8.735874 8.250887 7.908465 7.581021 7.014318 6.496514 6.020795 5.400362 4.722648 4.080118 3.408239 2.691571 1.961513 1.221009 0.550677 -0.120804 -0.800403 -1.300676 -1.785663 -2.125461 -2.226899 -2.359335 -2.634264 -2.786285 -2.786285 -3.041070 -99.000000 -4.238587 -99.000000 -99.000000 -99.000000 -99.000000 -99.000000 -99.000000 -99.000000 -99.000000 -99.000000 -99.000000 -99.000000 -99.000000 -99.000000 -99.000000 -99.000000 -99.000000 -99.000000 -99.000000 -99.000000 -99.000000 -99.000000 -99.000000 -99.000000 -99.000000 -99.000000 -99.000000 -99.000000 -99.000000 -99.000000 -99.000000 -99.000000 -99.000000 -99.000000 -99.000000 -99.000000 -99.000000 -99.000000 -99.000000 -99.000000 -99.000000 -99.000000 -99.000000 -99.000000 -99.000000 -99.000000 -99.000000 -99.000000 -99.000000 -99.000000
48.468876 48.407094 48.288760 48.152840 48.016920 47.673966 47.300186 46.926407 46.695446 46.636576 46.639665 46.629470 46.373076 46.116682 45.803329 45.619360 45.520509 45.421658 45.247974 45.019382 44.790789 44.593784 44.359013 44.124243 43.988625 43.715782 43.592219 43.468655 43.238187 42.991060 42.784931 42.696900 42.465218 42.233537 41.936092 41.733757 41.542233 41.346914 41.130678 40.914442 40.698206 40.552739 40.413730 40.265724 40.101591 39.953315 39.805039 39.641273 39.428126 39.214979 39.044640 38.905038 38.762940 38.620842 38.433342 38.291244 38.149146 37.914546 37.645795 37.377045 37.158508 36.988608 36.818708 36.642717 36.460461 36.278204 36.108608 35.898550 35.688492 35.534509 35.324075 35.052236 34.784845 34.711970 34.625475 34.538981 34.431612 34.277158 34.122704 33.899294 33.596564 33.293833 33.063145 32.948675 32.877626 32.806577 32.647223 32.427897 32.208572 31.994952 31.705355 31.396446 31.045999 30.394202 29.742405 29.254303 28.788719 27.979378 27.170037 26.642766 26.160868 25.678971 25.162916 24.597613 24.032310 23.609588 23.251254 22.892920 22.392996 21.802687 21.228117 20.653547 20.210728 19.917265 19.623801 19.193708 19.042567 18.897380 18.746669 18.576769 18.406869 18.160164 18.201261 18.247598 18.265661 18.125178 17.964545 17.803913 17.647162 17.356788 17.066414 16.977932 16.964259 16.924101 16.890085 17.079784 17.320733 17.561681 17.802630 18.043579 18.271304 18.177882 18.100655 18.023427 18.205214 18.900259 19.595303 20.014091 20.269158 20.244445 20.219732 20.074919 19.898841 19.722763 19.601716 19.515222 19.428727 19.293206 19.123306 18.953406 18.796615 18.657606 18.518598 18.374933 18.215202 18.054569 17.899543 17.762649 17.632908 17.503166 17.361517 17.203974 17.046430 16.890680 16.746775 16.598499 16.450223 16.269586 16.096597 15.923608 15.766117 15.614751 15.463386 15.301702 15.137981 14.974259 14.808292 14.594963 14.369460 14.144380 14.002282 13.860184 13.706125 13.543067 13.388612 13.234039 13.090963 12.902528 12.714094 12.498462 12.217356 11.936249 11.674159 11.522794 11.371429 11.201044 11.014100 10.797864 10.581627 10.327912 10.158012 9.988112 9.758589 9.415700 9.072811 8.767377 8.382170 8.054727 7.727284 7.210754 6.735034 6.259315 5.648702 5.006172 4.363642 3.691763 2.975095 2.258427 1.531535 0.861203 0.190871 -0.483126 -0.983399 -1.468386 -1.927444 -2.086656 -2.361585 -2.636514 -2.788535 -2.788535 -2.788535 -3.211099 -3.828917 -4.446734 -99.000000 -99.000000 -99.000000 -99.000000 -99.000000 -99.000000 -99.000000 -99.000000 -99.000000 -99.000000 -99.000000 -99.000000 -99.000000 -99.000000 -99.000000 -99.000000 -99.000000 -99.000000 -99.000000 -99.000000 -99.000000 -99.000000 -99.000000 -99.000000 -99.000000 -99.000000 -99.000000 -99.000000 -99.000000 -99.000000 -99.000000 -99.000000 -99.000000 -99.000000 -99.000000 -99.000000 -99.000000 -99.000000 -99.000000 -99.000000 -99.000000 -99.000000 -99.000000 -99.000000 -99.000000 -99.000000 -99.000000 -99.000000
48.821217 48.759435 48.641101 48.505181 48.369261 48.164887 47.791108 47.417328 47.119239 47.122328 47.125417 47.115223 46.858829 46.602435 46.351738 46.246953 46.148102 46.049251 45.875567 45.646974 45.418382 45.208117 44.973347 44.738576 44.525833 44.392413 44.268850 44.145286 43.914818 43.667691 43.420564 43.189421 42.957740 42.726058 42.530496 42.338972 42.147449 41.952604 41.736679 41.520443 41.304207 41.158740 41.019731 40.880722 40.718136 40.569860 40.421583 40.283131 40.069984 39.856837 39.673197 39.526354 39.384256 39.242158 39.065493 38.923395 38.781297 38.542768 38.274017 38.005267 37.785266 37.615366 37.445466 37.247264 37.065008 36.882752 36.657796 36.411354 36.201297 35.991239 35.732895 35.461055 35.189215 34.940493 34.853999 34.767504 34.466089 34.311635 34.157180 33.992354 33.689624 33.386893 33.078245 32.957081 32.886032 32.814983 32.580209 32.360884 32.141559 31.869706 31.560797 31.251889 30.967260 30.362773 29.710975 29.059178 28.268121 27.458781 26.649440 26.145357 25.663459 25.181561 24.777064 24.211761 23.646458 23.116822 22.758488 22.400154 22.130775 21.723246 21.148675 20.574105 20.175302 19.881839 19.588375 19.363227 19.218040 19.072853 18.822503 18.644613 18.474713 18.304813 18.348192 18.394528 18.440099 18.293661 18.133029 17.972396 17.745346 17.454972 17.164598 17.085944 17.045786 17.005628 16.968367 17.165114 17.406063 17.647012 17.842395 18.083344 18.324292 18.400214 18.322986 18.245759 18.420223 19.115268 19.810312 20.210245 20.195253 20.170540 20.145828 19.986727 19.810649 19.634571 19.513525 19.427030 19.340536 19.357715 19.187815 19.017915 18.867538 18.727469 18.588460 18.449451 18.297208 18.136575 17.975942 17.835868 17.706126 17.576384 17.429236 17.271693 17.114149 16.958763 16.809315 16.661039 16.512762 16.340913 16.167924 15.994935 15.847657 15.696291 15.544926 15.378994 15.215273 15.051551 14.872861 14.647357 14.421854 14.210680 14.057033 13.914935 13.772837 13.621251 13.466797 13.312342 13.142998 12.954564 12.766129 12.574066 12.292959 12.011852 11.738046 11.586681 11.435316 11.281683 11.071595 10.855359 10.639123 10.449849 10.279949 10.110049 9.867170 9.524281 9.181393 8.860126 8.544931 8.217487 7.890044 7.433562 6.957842 6.482123 5.934583 5.292053 4.649523 3.991000 3.274331 2.557663 1.854631 1.184299 0.513967 -0.153650 -0.651981 -1.136968 -1.621954 -2.026057 -2.300986 -2.575915 -2.727936 -2.727936 -2.727936 -2.854824 -3.458905 -4.076722 -4.694540 -99.000000 -99.000000 -99.000000 -99.000000 -99.000000 -99.000000 -99.000000 -99.000000 -99.000000 -99.000000 -99.000000 -99.000000 -99.000000 -99.000000 -99.000000 -99.000000 -99.000000 -99.000000 -99.000000 -99.000000 -99.000000 -99.000000 -99.000000 -99.000000 -99.000000 -99.000000 -99.000000 -99.000000 -99.000000 -99.000000 -99.000000 -99.000000 -99.000000 -99.000000 -99.000000 -99.000000 -99.000000 -99.000000 -99.000000 -99.000000 -99.000000 -99.000000 -99.000000 -99.000000 -99.000000 -99.000000 -99.000000
48.949477 48.887696 48.769361 48.633442 48.480248 48.337950 48.081382 47.707603 47.405093 47.318095 47.321184 47.310990 47.054595 46.798201 46.608259 46.520763 46.427125 46.328275 46.154590 45.925998 45.723294 45.545646 45.310875 45.081890 44.912866 44.732192 44.608629 44.485065 44.254597 44.007470 43.775436 43.547202 43.315520 43.113839 42.946781 42.755257 42.563734 42.368890 42.155215 41.938979 41.722743 41.577276 41.438267 41.254273 41.087167 40.938891 40.854903 40.762422 40.549275 40.361615 40.251496 40.034897 39.892799 39.750701 39.477091 39.332929 39.190831 38.944950 38.672301 38.403551 38.183549 38.013650 37.820153 37.573541 37.391285 37.208796 36.871564 36.512613 36.302555 36.092497 35.834153 35.562314 35.417479 35.058685 34.732489 34.645994 34.304267 33.634327 33.479873 33.315047 33.012316 32.709586 32.351434 32.230269 32.159220 31.916676 31.637380 31.418054 31.171334 30.868371 30.559463 30.259861 30.031180 29.685465 29.033668 28.381870 27.590814 26.781473 26.203533 25.735822 25.253924 24.833829 24.525921 24.121753 23.556450 23.026815 22.668481 22.310146 22.382796 22.303349 21.751727 21.177156 20.742724 20.426385 20.132921 19.907773 19.762586 19.583627 19.247789 18.880883 18.710983 18.541083 18.584462 18.630798 18.514356 18.403073 18.259039 18.098407 17.871357 17.580983 17.368552 17.437766 17.581331 17.541173 17.503912 17.552147 17.793095 18.034044 18.131603 18.339865 18.580814 18.673905 18.620012 18.542784 18.717248 19.412293 20.040894 19.829963 19.857724 19.833012 19.808299 19.636285 19.457369 19.281291 19.160245 19.073750 19.178454 19.391468 19.221568 19.059624 18.948545 18.801725 18.662716 18.523707 18.387487 18.228833 18.068200 17.928125 17.798384 17.659754 17.505742 17.348199 17.193341 17.046520 16.883571 16.735295 16.587019 16.415169 16.242180 16.097280 15.951165 15.799800 15.637012 15.462415 15.294029 15.130308 14.951617 14.726114 14.500611 14.329940 14.142540 14.000442 13.858344 13.706758 13.552304 13.413710 13.245885 13.049072 12.860637 12.672203 12.454973 12.173866 11.900060 11.748695 11.597330 11.421195 11.211107 10.994871 10.778635 10.589360 10.419461 10.232367 9.968429 9.625540 9.286553 8.992887 8.738447 8.411004 8.083561 7.627078 7.151358 6.757438 6.224858 5.582327 4.959680 4.319528 3.602859 2.889686 2.201161 1.530829 0.860497 0.204131 -0.294201 -0.779187 -1.321866 -1.800344 -2.123221 -2.398150 -2.550171 -2.550171 -2.597173 -2.854824 -3.233886 -3.851703 -4.469521 -99.000000 -99.000000 -99.000000 -99.000000 -99.000000 -99.000000 -99.000000 -99.000000 -99.000000 -99.000000 -99.000000 -99.000000 -99.000000 -99.000000 -99.000000 -99.000000 -99.000000 -99.000000 -99.000000 -99.000000 -99.000000 -99.000000 -99.000000 -99.000000 -99.000000 -99.000000 -99.000000 -99.000000 -99.000000 -99.000000 -99.000000 -99.000000 -99.000000 -99.000000 -99.000000 -99.000000 -99.000000 -99.000000 -99.000000 -99.000000 -99.000000 -99.000000 -99.000000 -99.000000 -99.000000 -99.000000 -99.000000
49.077738 49.015956 48.897622 48.753657 48.583757 48.441459 48.324073 47.997877 47.695368 47.568715 47.516951 47.506756 47.250362 47.037770 46.864781 46.777285 46.706149 46.607298 46.433614 46.209099 46.060823 45.883174 45.648404 45.468923 45.299899 45.111464 44.948407 44.824844 44.594375 44.355630 44.133216 43.904982 43.681489 43.530124 43.363066 43.171543 42.980019 42.785175 42.572028 42.357514 42.141278 41.995811 41.830274 41.623305 41.456198 41.331104 41.334193 41.241712 41.028565 40.939914 40.829795 40.591935 40.401342 40.259244 39.985634 39.742464 39.600366 39.354485 39.070585 38.801834 38.581833 38.411933 38.146431 37.899819 37.717563 37.422564 37.085332 36.720820 36.403814 36.193756 35.935412 35.725144 35.694253 35.335458 34.702195 34.524484 34.182757 33.265298 32.802566 32.637739 32.335009 31.995313 31.624622 31.503458 31.341447 30.973846 30.694550 30.469640 30.169999 29.867037 29.558128 29.323782 29.095101 28.798549 28.356361 27.704563 26.913507 26.235738 25.793999 25.326287 24.863408 24.539054 24.231146 23.946950 23.466442 22.936807 22.578473 22.523611 22.634818 22.555370 22.354778 21.780207 21.345775 20.971995 20.677467 20.452319 20.307132 20.008913 19.673075 19.243692 18.947253 18.777353 18.820732 18.764690 18.588612 18.477329 18.385050 18.224417 17.997367 17.706993 17.715081 17.784296 18.003621 18.076718 18.039458 18.076527 18.180128 18.421077 18.518636 18.596387 18.837336 18.930427 18.908803 18.839809 19.014273 19.709318 19.660611 19.449681 19.483661 19.495483 19.470770 19.298757 19.104089 18.928011 18.806965 18.767378 19.212207 19.425220 19.255321 19.140631 19.029552 18.881276 18.736973 18.597964 18.461743 18.321091 18.160458 18.020383 17.887626 17.736260 17.582249 17.424706 17.281098 17.134278 16.967467 16.809551 16.661275 16.489426 16.333619 16.200788 16.054674 15.898597 15.722519 15.547922 15.374933 15.209064 15.030374 14.804871 14.619194 14.449200 14.260766 14.085950 13.943852 13.792265 13.645282 13.521719 13.353894 13.146925 12.955145 12.766711 12.578277 12.335880 12.062074 11.910709 11.742963 11.560707 11.350619 11.134383 10.918147 10.728872 10.556039 10.333625 10.069687 9.726798 9.419314 9.125648 8.881610 8.604520 8.277077 7.820594 7.390601 7.047712 6.515132 5.878223 5.288208 4.648055 3.931387 3.236215 2.547690 1.877358 1.216797 0.561911 0.063580 -0.455610 -1.027091 -1.505569 -1.941130 -2.220385 -2.372406 -2.372406 -2.597173 -2.854824 -3.163733 -3.626684 -4.244502 -99.000000 -99.000000 -99.000000 -99.000000 -99.000000 -99.000000 -99.000000 -99.000000 -99.000000 -99.000000 -99.000000 -99.000000 -99.000000 -99.000000 -99.000000 -99.000000 -99.000000 -99.000000 -99.000000 -99.000000 -99.000000 -99.000000 -99.000000 -99.000000 -99.000000 -99.000000 -99.000000 -99.000000 -99.000000 -99.000000 -99.000000 -99.000000 -99.000000 -99.000000 -99.000000 -99.000000 -99.000000 -99.000000 -99.000000 -99.000000 -99.000000 -99.000000 -99.000000 -99.000000 -99.000000 -99.000000 -99.000000
49.215505 49.144217 49.025883 48.857166 48.687266 48.544967 48.427582 48.288152 47.985642 47.858990 47.732337 47.702523 47.467281 47.294292 47.121303 47.033806 46.965847 46.886322 46.712638 46.546628 46.398352 46.220703 46.022767 45.855956 45.686931 45.498497 45.310063 45.164623 44.935825 44.713410 44.490996 44.262762 44.097775 43.946409 43.779351 43.587828 43.396304 43.201460 42.988313 42.775166 42.559814 42.406274 42.199305 41.992336 41.825229 41.810395 41.813484 41.721003 41.595440 41.518213 41.408094 41.170234 40.932374 40.767787 40.494177 40.216159 40.009901 39.764019 39.479823 39.200118 38.980117 38.741459 38.472708 38.226097 37.973043 37.636332 37.299100 36.934588 36.570076 36.295014 36.036670 36.001917 35.971026 35.612232 34.978969 34.402973 34.061247 33.143788 32.226329 31.960432 31.639192 31.268501 30.897811 30.766219 30.398618 30.031016 29.751720 29.468306 29.168664 28.865702 28.607028 28.387702 28.159022 27.862469 27.565917 27.027256 26.267943 25.826204 25.384464 24.916753 24.568633 24.244279 23.936371 23.652175 23.367979 22.846799 22.664425 22.775632 22.886839 22.807392 22.714719 22.383258 21.948826 21.575046 21.222014 20.996865 20.743108 20.434199 20.098361 19.668978 19.239595 19.013623 19.015024 18.838946 18.662868 18.551585 18.462002 18.350428 18.123378 18.049254 18.061611 18.130825 18.350150 18.569476 18.575003 18.612072 18.649141 18.808110 18.905669 18.967450 19.093857 19.186949 19.165325 19.136835 19.311298 19.515100 19.280329 19.069399 19.103379 19.137359 19.133242 18.961228 18.763527 18.574731 18.453685 18.801131 19.245960 19.458973 19.326667 19.221638 19.110559 18.962283 18.814006 18.672220 18.536000 18.400080 18.252716 18.112641 17.964132 17.812767 17.658755 17.510954 17.368856 17.222035 17.055224 16.888414 16.735531 16.569959 16.437128 16.304297 16.158183 15.984104 15.808026 15.633429 15.460440 15.287821 15.109131 14.908354 14.738454 14.568460 14.380026 14.191592 14.029359 13.877773 13.753292 13.629728 13.461903 13.254934 13.049653 12.861219 12.672785 12.484350 12.224088 12.064731 11.882475 11.700219 11.490131 11.273895 11.057658 10.868384 10.657298 10.434884 10.170946 9.851717 9.552075 9.258409 9.014371 8.770333 8.470593 8.023764 7.680876 7.337987 6.805407 6.206751 5.616735 4.976583 4.274700 3.582744 2.894219 2.229464 1.574578 0.919691 0.410646 -0.160835 -0.732317 -1.210794 -1.646355 -2.042620 -2.194641 -2.353135 -2.597173 -2.854824 -3.163733 -3.472642 -4.019483 -99.000000 -99.000000 -99.000000 -99.000000 -99.000000 -99.000000 -99.000000 -99.000000 -99.000000 -99.000000 -99.000000 -99.000000 -99.000000 -99.000000 -99.000000 -99.000000 -99.000000 -99.000000 -99.000000 -99.000000 -99.000000 -99.000000 -99.000000 -99.000000 -99.000000 -99.000000 -99.000000 -99.000000 -99.000000 -99.000000 -99.000000 -99.000000 -99.000000 -99.000000 -99.000000 -99.000000 -99.000000 -99.000000 -99.000000 -99.000000 -99.000000 -99.000000 -99.000000 -99.000000 -99.000000 -99.000000 -99.000000
49.359517 49.276112 49.130574 48.960674 48.790774 48.648476 48.531091 48.413705 48.275917 48.149264 48.022612 47.898289 47.723802 47.550813 47.377825 47.290328 47.222368 47.154408 47.032433 46.884156 46.735880 46.576610 46.409799 46.242989 46.073964 45.885530 45.697095 45.508661 45.293605 45.071191 44.848776 44.665425 44.514060 44.362695 44.195636 44.004113 43.812590 43.617745 43.404598 43.191451 42.978304 42.775305 42.568336 42.361367 42.286596 42.289685 42.292774 42.250967 42.173739 42.096512 41.986393 41.748533 41.510673 41.276330 41.002720 40.724703 40.446685 40.173554 39.889358 39.605162 39.336487 39.067736 38.798986 38.523521 38.186811 37.850100 37.512868 37.148356 36.783844 36.419331 36.309581 36.278690 36.247800 35.889005 35.255742 34.622479 33.939736 33.022278 32.104819 31.283071 30.912380 30.541690 30.170999 29.823389 29.455788 29.088186 28.766612 28.466971 28.167329 27.890274 27.670948 27.451623 27.222943 26.926390 26.629838 26.333285 25.858408 25.416669 24.974929 24.598213 24.273858 23.949504 23.641596 23.357400 23.073204 22.805239 22.916446 23.027653 23.138860 23.059413 22.966740 22.874068 22.551877 22.178097 21.804318 21.477302 21.168394 20.859485 20.523647 20.094264 19.664881 19.249893 19.089281 18.913203 18.737125 18.625841 18.536258 18.446674 18.383427 18.395784 18.408140 18.477354 18.696680 18.916005 19.110548 19.147617 19.184686 19.221755 19.292701 19.354483 19.416265 19.443470 19.421847 19.400223 19.369588 19.134818 18.900047 18.689117 18.723097 18.757077 18.791057 18.623700 18.425998 18.228296 18.390055 18.834884 19.279713 19.512703 19.407674 19.302645 19.191566 19.043290 18.895013 18.746737 18.610256 18.474336 18.338416 18.192004 18.040639 17.889273 17.740809 17.598711 17.456613 17.309793 17.142982 16.976171 16.809787 16.673467 16.540637 16.407806 16.245689 16.069611 15.893533 15.718937 15.545948 15.372959 15.197514 15.027614 14.857714 14.687720 14.499286 14.310852 14.122417 13.984864 13.861301 13.737737 13.569912 13.362943 13.155975 12.955727 12.767293 12.578858 12.386101 12.204243 12.021987 11.839731 11.629642 11.413406 11.197170 10.980971 10.758557 10.536142 10.284119 9.984478 9.684837 9.391171 9.147133 8.903095 8.659057 8.314039 7.971150 7.628262 7.125295 6.535279 5.945263 5.313185 4.621229 3.929274 3.242131 2.587245 1.932358 1.277472 0.705421 0.133940 -0.437542 -0.916019 -1.351580 -1.787142 -2.109098 -2.353135 -2.597173 -2.854824 -3.163733 -3.472642 -99.000000 -4.712740 -5.639467 -6.566193 -99.000000 -99.000000 -99.000000 -99.000000 -99.000000 -99.000000 -99.000000 -99.000000 -99.000000 -99.000000 -99.000000 -99.000000 -99.000000 -99.000000 -99.000000 -99.000000 -99.000000 -99.000000 -99.000000 -99.000000 -99.000000 -99.000000 -99.000000 -99.000000 -99.000000 -99.000000 -99.000000 -99.000000 -99.000000 -99.000000 -99.000000 -99.000000 -99.000000 -99.000000 -99.000000 -99.000000 -99.000000 -99.000000 -99.000000 -99.000000 -99.000000 -99.000000 -99.000000 -99.000000
49.318202 49.234797 49.085413 48.915514 48.750754 48.623268 48.506296 48.388910 48.268853 48.142200 48.015547 47.894846 47.748155 47.575167 47.402178 47.314681 47.246721 47.167094 47.058617 46.914163 46.765887 46.611317 46.444506 46.277695 46.041464 45.853030 45.664595 45.440519 45.130024 44.907610 44.685196 44.383246 44.225693 44.074328 43.897612 43.699454 43.507930 43.313086 43.099939 42.886792 42.678980 42.301197 42.094229 41.887260 41.822956 41.826045 41.798797 41.599179 41.521952 41.444725 41.232916 40.990844 40.752984 40.515125 40.238409 39.960391 39.640246 39.328564 39.044368 38.767706 38.502467 38.229098 37.960347 37.685271 37.366003 37.029293 36.692061 36.327548 35.963036 35.597162 35.331830 35.300939 35.270048 34.911254 34.277991 33.644728 33.188927 32.271468 31.354009 30.913280 30.633613 30.262923 29.892232 29.562809 29.195208 28.827606 28.585104 28.294519 27.994877 27.724017 27.504691 27.285366 27.138148 26.841596 26.545043 26.404549 26.222769 25.781030 25.339290 25.127301 24.805930 24.481575 24.173667 23.889471 23.605275 23.216632 23.064602 23.175810 23.287017 23.207569 23.114897 22.974776 22.700774 22.326994 21.953214 21.609323 21.300414 20.991505 20.877653 20.448270 20.018887 20.018282 19.803019 19.626941 19.450863 19.339580 19.249996 19.150365 18.964136 18.941897 18.954253 19.023467 19.242793 19.462118 19.391589 19.396007 19.433076 19.470145 19.376286 19.438068 19.499849 19.514665 19.493041 19.471417 19.539909 19.330884 19.096113 18.885183 18.919163 18.953143 19.173310 19.064139 18.866438 18.715218 18.611510 19.029526 19.474354 19.711831 19.606802 19.501773 19.268499 19.120223 18.971947 18.769855 18.623415 18.487495 18.378663 18.260364 18.108999 17.957633 17.816852 17.678322 17.536224 17.389404 17.222593 17.055782 16.896548 16.740318 16.607487 16.474656 16.310831 16.134753 15.974964 15.861468 15.688479 15.515490 15.309794 15.148911 14.979011 14.809017 14.620583 14.432148 14.250312 14.115276 13.991712 13.868149 13.700324 13.493355 13.286386 13.103186 12.914751 12.726317 12.541310 12.370230 12.187974 12.005718 11.777301 11.561064 11.344828 11.124997 10.902583 10.680132 10.434609 10.143715 9.844073 9.550407 9.306369 9.062331 8.785577 8.608387 8.265498 7.922609 7.444785 6.855660 6.265645 5.641389 4.953502 4.261547 3.575473 2.920586 2.265700 1.641310 1.067402 0.495921 -0.095723 -0.712890 -1.148451 -1.584012 -1.933953 -2.177991 -2.422029 -2.854824 -99.000000 -3.472642 -3.586343 -4.487721 -5.414448 -6.341174 -8.122027 -10.343754 -99.000000 -99.000000 -99.000000 -99.000000 -99.000000 -99.000000 -99.000000 -99.000000 -99.000000 -99.000000 -99.000000 -99.000000 -99.000000 -99.000000 -99.000000 -99.000000 -99.000000 -99.000000 -99.000000 -99.000000 -99.000000 -99.000000 -99.000000 -99.000000 -99.000000 -99.000000 -99.000000 -99.000000 -99.000000 -99.000000 -99.000000 -99.000000 -99.000000 -99.000000 -99.000000 -99.000000 -99.000000 -99.000000 -99.000000 -99.000000 -99.000000 -99.000000
49.257447 49.174041 49.024658 48.854759 48.710250 48.582765 48.468043 48.350657 48.230599 48.103947 47.981362 47.863344 47.733602 47.575167 47.402178 47.314681 47.246721 47.131091 47.022614 46.911913 46.763637 46.609067 46.442256 46.225485 45.964958 45.776523 45.570902 45.314508 44.977935 44.689341 44.466927 44.164978 43.863412 43.712047 43.535332 43.319172 43.127648 42.932804 42.719657 42.509328 42.305448 41.860954 41.531681 41.324712 41.260409 41.263498 41.017980 40.818363 40.741136 40.574228 40.341841 40.094714 39.855158 39.617299 39.340583 39.049800 38.663664 38.351981 38.067785 37.827126 37.561887 37.268267 36.999516 36.724440 36.430977 36.099964 35.762732 35.398220 35.033184 34.665583 34.370410 34.191595 34.160704 33.801910 33.168647 32.814427 32.372108 31.454649 30.834078 30.569000 30.352764 30.031153 29.660463 29.341221 29.006192 28.638590 28.396088 28.209012 27.909370 27.638509 27.419184 27.262734 27.142649 26.846096 26.627585 26.618317 26.508019 26.226567 25.784828 25.572839 25.424732 25.100378 24.792470 24.508274 24.156607 23.747677 23.318294 23.313071 23.424278 23.344831 23.240783 23.015279 22.744501 22.428253 22.054473 21.710581 21.401672 21.298573 21.224182 20.794799 20.613832 20.848603 20.611113 20.407757 20.231679 20.120396 20.030812 19.888427 19.702198 19.508945 19.521301 19.590515 19.809841 19.847895 19.648111 19.632665 19.651344 19.688413 19.562315 19.489822 19.551604 19.566419 19.544795 19.668664 19.740176 19.582633 19.352635 19.141705 19.175685 19.296862 19.695354 19.586184 19.388824 19.361022 19.257315 19.241044 19.685872 19.923349 19.818320 19.615501 19.345006 19.196730 19.020644 18.776606 18.630166 18.498684 18.446169 18.327870 18.176504 18.025139 17.884358 17.757079 17.614981 17.468160 17.301350 17.138760 16.984305 16.818065 16.670493 16.537662 16.373836 16.197758 16.123476 16.009980 15.836991 15.627026 15.415553 15.267276 15.100521 14.930527 14.742093 14.556062 14.383073 14.248037 14.124473 14.000910 13.833085 13.626116 13.438085 13.256199 13.067764 12.880701 12.696573 12.532851 12.356738 12.174482 11.941622 11.709577 11.493341 11.273510 11.051096 10.821894 10.576371 10.304532 10.006087 9.712421 9.468383 9.208407 8.902587 8.776885 8.560273 8.217384 7.739560 7.175188 6.585172 5.960916 5.284280 4.592325 3.906251 3.251364 2.612713 2.010341 1.436434 0.860729 0.230555 -0.391164 -0.954935 -1.390496 -1.740436 -1.984474 -99.000000 -2.854824 -3.163733 -3.361324 -3.361324 -4.262702 -5.189428 -6.116155 -7.497252 -10.550326 -99.000000 -99.000000 -99.000000 -99.000000 -99.000000 -99.000000 -99.000000 -99.000000 -99.000000 -99.000000 -99.000000 -99.000000 -99.000000 -99.000000 -99.000000 -99.000000 -99.000000 -99.000000 -99.000000 -99.000000 -99.000000 -99.000000 -99.000000 -99.000000 -99.000000 -99.000000 -99.000000 -99.000000 -99.000000 -99.000000 -99.000000 -99.000000 -99.000000 -99.000000 -99.000000 -99.000000 -99.000000 -99.000000 -99.000000 -99.000000 -99.000000 -99.000000
49.204943 49.113286 48.963903 48.811845 48.669747 48.542261 48.427965 48.312404 48.192346 48.067244 47.949859 47.831841 47.702099 47.572358 47.402178 47.314681 47.212473 47.095088 46.986611 46.884671 46.761387 46.606816 46.417729 46.148979 45.888451 45.700017 45.444892 45.188498 44.851925 44.502858 44.248659 43.946709 43.597642 43.349767 43.173051 42.956815 42.747366 42.552522 42.339676 42.135796 41.931916 41.487422 41.020970 40.762165 40.697861 40.533717 40.237164 40.037547 39.911745 39.683153 39.450765 39.203638 38.957332 38.719473 38.442757 38.073217 37.687081 37.375398 37.121317 36.886547 36.621308 36.324755 36.038685 35.763609 35.470145 35.170635 34.833403 34.468891 34.101605 33.734004 33.438832 33.163903 33.051360 32.692566 32.229290 31.997608 31.555289 30.758549 30.489799 30.224721 30.008485 29.792249 29.428693 29.109451 28.800543 28.449574 28.207072 28.049529 27.823863 27.553002 27.362997 27.267235 27.147149 26.850620 26.841353 26.832086 26.721787 26.598224 26.230365 26.018376 25.931882 25.719180 25.411272 25.092322 24.687652 24.278722 23.849339 23.450333 23.561540 23.482093 23.281286 23.055783 22.785004 22.494630 22.155732 21.811840 21.617301 21.645103 21.570712 21.209382 21.444152 21.678923 21.441433 21.197395 21.012495 20.901212 20.774766 20.626489 20.440261 20.217846 20.088349 20.157563 20.311385 20.104416 19.904633 19.889187 19.873742 19.906682 19.780583 19.613772 19.603358 19.618173 19.686675 19.868931 19.940443 19.782900 19.609157 19.398226 19.432206 19.818906 20.217398 20.108228 20.034629 20.006827 19.903120 19.751754 19.897390 20.134866 19.982381 19.692007 19.421512 19.271432 19.027394 18.783356 18.636916 18.566189 18.513675 18.395375 18.244010 18.092645 17.951864 17.825211 17.693737 17.546917 17.380972 17.226517 17.072063 16.905822 16.739011 16.600667 16.436842 16.330682 16.271989 16.158493 15.964467 15.732785 15.521312 15.373035 15.222032 15.052038 14.863603 14.688823 14.515834 14.380798 14.257235 14.133671 13.965846 13.770265 13.591098 13.409212 13.221310 13.035965 12.851836 12.688115 12.524393 12.343246 12.110387 11.866349 11.641853 11.422022 11.195338 10.963656 10.718133 10.446294 10.168101 9.874435 9.630397 9.325417 9.019597 8.893895 8.795044 8.512159 8.034335 7.478300 6.904699 6.280444 5.603933 4.923103 4.237029 3.584116 2.981744 2.379372 1.805465 1.187006 0.556833 -0.064886 -0.682704 -1.196980 -1.546920 -1.877561 -2.387261 -2.854824 -3.136305 -3.136305 -3.136305 -4.037683 -4.964409 -5.891136 -7.272233 -8.816777 -10.540621 -99.000000 -99.000000 -99.000000 -99.000000 -99.000000 -99.000000 -99.000000 -99.000000 -99.000000 -99.000000 -99.000000 -99.000000 -99.000000 -99.000000 -99.000000 -99.000000 -99.000000 -99.000000 -99.000000 -99.000000 -99.000000 -99.000000 -99.000000 -99.000000 -99.000000 -99.000000 -99.000000 -99.000000 -99.000000 -99.000000 -99.000000 -99.000000 -99.000000 -99.000000 -99.000000 -99.000000 -99.000000 -99.000000 -99.000000 -99.000000 -99.000000
49.195943 49.052531 48.913439 48.771341 48.629243 48.501758 48.387462 48.273165 48.154093 48.035742 47.918356 47.800338 47.670597 47.540855 47.402178 47.293855 47.176470 47.059085 46.950608 46.848668 46.746728 46.604566 46.341223 46.072472 45.811945 45.575275 45.318881 45.062487 44.725914 44.376847 44.030390 43.728441 43.379374 43.030307 42.810770 42.594534 42.378298 42.172239 41.966144 41.762265 41.558385 41.113890 40.647438 40.199617 40.049453 39.752901 39.456348 39.249262 39.020670 38.792077 38.559690 38.312563 38.065436 37.821647 37.482770 37.096634 36.710498 36.415508 36.180738 35.945967 35.680728 35.384176 35.087623 34.802777 34.509314 34.215851 33.904075 33.537628 33.170027 32.802425 32.507253 32.232324 31.957395 31.644152 31.412471 31.180789 30.738470 30.414270 30.145519 29.880442 29.664206 29.447970 29.196924 28.877682 28.568773 28.259864 28.018056 27.860513 27.702969 27.467495 27.367497 27.271735 27.151649 27.064388 27.055121 27.045854 26.935555 26.811992 26.675903 26.463914 26.377420 26.290925 26.028038 25.623367 25.218697 24.809767 24.380384 23.951001 23.698802 23.547293 23.321790 23.096286 22.825508 22.535133 22.244759 21.936028 21.963830 21.991632 21.917241 22.039702 22.274472 22.509243 22.271754 22.027716 21.793311 21.661104 21.512828 21.364552 21.178323 20.955909 20.733494 20.724611 20.567907 20.360938 20.161154 20.145709 20.130263 20.124950 19.998851 19.832041 19.665230 19.704686 19.886942 20.069198 20.140710 19.983167 19.825623 19.654748 19.942458 20.340950 20.739442 20.708235 20.680433 20.652632 20.548924 20.397559 20.246194 20.346384 20.058888 19.768514 19.498019 19.278183 19.034145 18.790107 18.686209 18.633695 18.581180 18.462881 18.311516 18.160151 18.019370 17.892717 17.766064 17.625674 17.468729 17.314275 17.159820 16.993579 16.826769 16.663672 16.537887 16.479194 16.420501 16.301908 16.070226 15.838544 15.627071 15.478794 15.330518 15.173548 14.994573 14.821584 14.648595 14.513559 14.389996 14.266432 14.102445 13.923278 13.744111 13.562225 13.376573 13.191228 13.007099 12.843378 12.679656 12.512011 12.279151 12.035113 11.791075 11.568781 11.337100 11.105418 10.859895 10.588056 10.316216 10.036448 9.748246 9.442427 9.136607 9.010905 8.912054 8.806934 8.329110 7.773074 7.217039 6.599971 5.923460 5.246950 4.567807 3.953148 3.350776 2.748404 2.143458 1.513284 0.883110 0.261391 -0.356426 -0.974244 -1.367862 -1.877561 -2.387261 -2.854824 -2.911286 -2.911286 -2.911286 -3.812664 -4.739390 -5.666117 -7.047214 -8.591758 -10.136301 -99.000000 -99.000000 -99.000000 -99.000000 -99.000000 -99.000000 -99.000000 -99.000000 -99.000000 -99.000000 -99.000000 -99.000000 -99.000000 -99.000000 -99.000000 -99.000000 -99.000000 -99.000000 -99.000000 -99.000000 -99.000000 -99.000000 -99.000000 -99.000000 -99.000000 -99.000000 -99.000000 -99.000000 -99.000000 -99.000000 -99.000000 -99.000000 -99.000000 -99.000000 -99.000000 -99.000000 -99.000000 -99.000000 -99.000000 -99.000000 -99.000000
49.159971 48.967139 48.724598 48.582500 48.440402 48.312916 48.198620 48.084324 47.855251 47.731421 47.614036 47.496018 47.366277 47.236535 47.101703 46.950803 46.833418 46.716032 46.607556 46.505616 46.403676 46.237828 45.969078 45.700327 45.431463 45.200306 44.943912 44.687517 44.350944 44.001878 43.652811 43.472828 43.123761 42.774695 42.477535 42.261299 42.045063 41.821693 41.640330 41.436450 41.232570 40.788076 40.321624 39.858502 39.650374 39.353821 39.057269 38.911083 38.682491 38.453898 38.221510 37.974383 37.727256 37.329250 37.191862 36.805726 36.419590 36.144006 35.909235 35.674464 35.461092 35.164539 34.867987 34.618085 34.338927 34.045464 33.750610 33.383008 33.015407 32.655056 32.385827 32.110899 31.835970 31.562799 31.331117 31.099436 30.855420 30.586580 30.317830 30.052753 29.836517 29.620280 29.388945 29.080553 28.771644 28.462735 28.218038 28.060495 27.902951 27.633732 27.537970 27.442208 27.356925 27.347657 27.338390 27.293146 27.155547 27.031984 26.908420 26.808831 26.722336 26.635842 26.502029 26.097359 25.692689 25.283759 24.854376 24.424993 24.045826 23.824307 23.598804 23.373301 23.102522 22.812148 22.521774 22.383178 22.410980 22.438782 22.512847 22.747617 22.982388 23.199247 23.023237 22.779199 22.535161 22.362860 22.214584 22.066308 21.927796 21.705382 21.482967 21.314204 21.120067 20.913098 20.713315 20.697869 20.682424 20.622828 20.421474 20.254663 20.087852 19.897692 20.079948 20.262204 20.333716 20.176173 20.018629 19.702803 19.837955 20.236448 20.634940 20.670440 20.642639 20.614837 20.540175 20.388809 20.237444 20.343820 20.053445 19.763071 19.494737 19.272485 19.028447 18.784409 18.713259 18.660745 18.608507 18.562544 18.411179 18.259814 18.119033 17.992380 17.865727 17.728575 17.574121 17.419667 17.264317 17.097934 16.931123 16.765123 16.644906 16.586214 16.527521 16.385883 16.154201 15.922519 15.738266 15.582479 15.434202 15.285801 15.112812 14.939823 14.769076 14.630761 14.507197 14.383634 14.230562 14.051395 13.872228 13.705248 13.520425 13.335080 13.150083 12.982044 12.818322 12.654600 12.425094 12.181056 11.937018 11.738551 11.506870 11.275188 11.012031 10.740191 10.468351 10.192860 9.887040 9.581221 9.263943 9.131027 9.032176 8.933325 8.593803 8.037767 7.481731 6.878004 6.201494 5.524984 4.898603 4.326328 3.723956 3.121584 2.497743 1.867569 1.237396 0.615677 -0.002141 -0.619958 -1.247532 -1.757231 -2.266931 -2.744866 -2.790000 -2.790000 -2.790000 -3.380179 -4.306906 -5.233632 -6.614729 -8.159273 -9.703817 -10.737487 -99.000000 -99.000000 -99.000000 -99.000000 -99.000000 -99.000000 -99.000000 -99.000000 -99.000000 -99.000000 -99.000000 -99.000000 -99.000000 -99.000000 -99.000000 -99.000000 -99.000000 -99.000000 -99.000000 -99.000000 -99.000000 -99.000000 -99.000000 -99.000000 -99.000000 -99.000000 -99.000000 -99.000000 -99.000000 -99.000000 -99.000000 -99.000000 -99.000000 -99.000000 -99.000000 -99.000000 -99.000000 -99.000000 -99.000000 -99.000000
